# .PCD v0.7 - Point Cloud Data file format
VERSION 0.7
FIELDS x y z rgb
SIZE 4 4 4 4
TYPE F F F U
COUNT 1 1 1 1
WIDTH 1048
HEIGHT 1
VIEWPOINT 0 0 0 1 0 0 0
POINTS 1048
DATA ascii
-0.20463763 0.13771486 -0.17778075 4281938181
-0.2061754 0.13717447 -0.17905983 4282135047
-0.20746237 0.13736266 -0.17813294 4282266633
-0.20887473 0.13718657 -0.17830904 4282135047
-0.21028709 0.13701047 -0.17848513 4282266633
-0.21169946 0.13683437 -0.17866123 4282267146
-0.21297365 0.13702418 -0.17773275 4282004228
-0.21438347 0.13684841 -0.17790854 4281872642
-0.21564999 0.13703915 -0.17697902 4282070021
-0.21691142 0.13723056 -0.17604896 4282004228
-0.21816772 0.13742259 -0.17511827 4282201607
-0.21956988 0.13724777 -0.17529309 4282201607
-0.22081852 0.13744074 -0.17436141 4282070021
-0.22206207 0.13763437 -0.17342912 4282266885
-0.22345911 0.13746017 -0.17360331 4282003713
-0.22485615 0.13728599 -0.17377749 4282266883
-0.2262532 0.1371118 -0.17395167 4282069504
-0.22748396 0.13730705 -0.17301773 4282135297
-0.22887844 0.13713318 -0.17319159 4281938432
-0.23027295 0.13695931 -0.17336546 4282004224
-0.23166741 0.13678545 -0.17353933 4281938432
-0.23306189 0.13661158 -0.17371319 4282069760
-0.23427735 0.13680868 -0.17277738 4282793479
-0.2356693 0.13663512 -0.17295094 4284702232
-0.23687708 0.13683322 -0.17201418 4284307472
-0.23826645 0.13665998 -0.17218742 4286478112
-0.23946659 0.13685903 -0.1712497 4286939174
-0.24066159 0.13705868 -0.17031135 4286939174
-0.24185149 0.13725902 -0.16937231 4286873122
-0.24303631 0.13745995 -0.16843267 4285753623
-0.244216 0.13766153 -0.16749242 4285689123
-0.24518853 0.13823761 -0.16543891 4286215971
-0.24635547 0.13844079 -0.16449706 4286281764
-0.24772443 0.13827011 -0.16466776 4286149660
-0.24888368 0.13847424 -0.16372494 4286873633
-0.25025007 0.13830388 -0.16389531 4286873631
-0.25140166 0.13850895 -0.16295154 4286413861
-0.25276551 0.13833891 -0.16312158 4285755931
-0.25390944 0.13854495 -0.16217688 4281345536
-0.25527075 0.13837522 -0.1623466 4280885248
-0.25663203 0.1382055 -0.16251633 4280360448
-0.25799331 0.13803576 -0.16268606 4280098048
-0.25935459 0.13786604 -0.16285579 4280163840
-0.2607159 0.13769631 -0.16302551 4281215755
-0.26207715 0.13752659 -0.16319524 4281479429
-0.26367623 0.13697854 -0.16448195 4281807365
-0.26504007 0.13680848 -0.164652 4281938183
-0.2666468 0.13625951 -0.16593969 4281938183
-0.26825863 0.13570987 -0.167228 4281741574
-0.26987559 0.13515958 -0.16851693 4281873162
-0.27174821 0.13422877 -0.17092519 4281873162
-0.27337793 0.13367689 -0.17221572 4281741576
-0.27501273 0.13312441 -0.17350692 4281215746
-0.27665269 0.13257124 -0.17479879 4280623620
-0.27829772 0.13201748 -0.17609125 4279309312
-0.27994785 0.13146307 -0.17738433 4279243520
-0.28133723 0.13128984 -0.17755756 4279637000
-0.28272662 0.1311166 -0.1777308 4281346064
-0.284116 0.13094337 -0.17790402 4281477898
-0.28550538 0.13077015 -0.17807727 4280886529
-0.28689477 0.13059691 -0.17825049 4280754944
-0.28828412 0.13042368 -0.17842372 4280754944
-0.28939235 0.13063417 -0.17747456 4281017861
-0.29077914 0.13046128 -0.17764746 4281281035
-0.29187968 0.13067271 -0.17669731 4281282570
-0.29326394 0.13050011 -0.17686991 4281479949
-0.29435679 0.13071255 -0.17591877 4281545994
-0.29573849 0.13054028 -0.17609105 4281873160
-0.29712021 0.13036799 -0.17626332 4282003463
-0.29850197 0.13019572 -0.17643559 4281741572
-0.29988363 0.13002345 -0.17660786 4281675779
0.23670134 0.20242691 -0.09653794 4283118848
0.23535286 0.20225878 -0.09670607 4283118848
0.23400433 0.20209064 -0.096874207 4283315712
0.2333554 0.20166287 -0.098044351 4283249920
0.2327013 0.20123447 -0.099215075 4283249920
0.23134768 0.2010657 -0.099383853 4283184128
0.22999404 0.20089693 -0.099552624 4283118336
0.22932974 0.20046729 -0.10072464 4283974146
0.22797355 0.20029819 -0.10089374 4284368904
0.22798581 0.19960605 -0.10307064 4285289222
0.22662456 0.19943632 -0.10324036 4285355265
0.22594237 0.19900443 -0.10441459 4285750277
0.22457853 0.19883437 -0.10458463 4285750277
0.22388865 0.19840153 -0.10575982 4286012164
0.22319369 0.19796805 -0.10693567 4285945856
0.22249363 0.19753394 -0.10811212 4285682688
0.22112213 0.19736293 -0.10828312 4284762368
0.22041444 0.19692785 -0.10946061 4284301824
0.21970159 0.19649214 -0.11063867 4283776000
0.218325 0.1963205 -0.1108103 4283645696
0.21760449 0.19588383 -0.11198931 4283514122
0.21622533 0.19571187 -0.11216127 4283514122
0.21484616 0.19553991 -0.11233322 4283317774
0.21346703 0.19536795 -0.11250518 4283318028
0.21144195 0.1954623 -0.1116685 4283253001
0.20942198 0.1955573 -0.11083118 4283253001
0.20740712 0.19565292 -0.10999314 4283450380
0.20539738 0.19574918 -0.10915454 4283187721
0.19876823 0.19630997 -0.10562429 4288188716
0.19678147 0.19640911 -0.10478283 4287597356
0.19479983 0.19650884 -0.10394071 4285557773
0.1934462 0.19634007 -0.10410948 4284833037
0.19209257 0.1961713 -0.10427826 4284898830
0.18336581 0.19543007 -0.10427716 4282987530
0.18201472 0.19526161 -0.10444561 4282461186
0.18006369 0.19536522 -0.10359963 4281805062
0.17871518 0.19519708 -0.10376777 4282135051
0.17677185 0.19530161 -0.10292087 4282003978
0.1754259 0.19513379 -0.10308869 4280359942
0.17349023 0.19523928 -0.10224086 4279833600
0.17214681 0.19507179 -0.10240836 4279571459
0.1708034 0.19490428 -0.10257586 4280294149
0.21235184 0.17268457 -0.18344182 4281871886
0.21080667 0.17249191 -0.18363447 4282136330
0.20868967 0.17257479 -0.18280926 4282136584
0.20657778 0.17265829 -0.18198338 4282399754
0.20503771 0.17246628 -0.1821754 4282333961
0.20349765 0.17227426 -0.18236741 4282399752
0.20195758 0.17208225 -0.18255943 4282727947
0.2004175 0.17189023 -0.18275146 4283055629
0.19832094 0.17197566 -0.18192369 4283843341
0.19678342 0.17178395 -0.18211539 4284172306
0.19524591 0.17159225 -0.18230709 4284235269
0.1937084 0.17140056 -0.18249878 4285281280
0.1921709 0.17120886 -0.18269049 4287187456
0.19063336 0.17101716 -0.18288219 4288899072
0.18909585 0.17082545 -0.18307389 4288899072
0.18701969 0.17091346 -0.18224351 4289293313
0.18548472 0.17072207 -0.1824349 4289622532
0.18394977 0.17053069 -0.18262628 4290409984
0.18241481 0.17033932 -0.18281765 4291789056
0.18087986 0.17014793 -0.18300904 4292118020
0.17881905 0.17023779 -0.1821768 4294088199
0.17728664 0.17004673 -0.18236786 4294549504
0.17523348 0.17013758 -0.18153468 4294947074
0.17370361 0.16994683 -0.18172543 4294683392
0.17217377 0.1697561 -0.18191616 4294486016
0.17064393 0.16956535 -0.18210691 4292775168
0.16911407 0.1693746 -0.18229766 4291790592
0.16758423 0.16918387 -0.1824884 4291003648
0.1665598 0.16870929 -0.1837053 4289687040
0.16502741 0.16851823 -0.18389636 4288371200
0.16399531 0.16804273 -0.18511423 4286200064
0.16246036 0.16785134 -0.18530563 4285017088
0.1609254 0.16765997 -0.185497 4284426496
0.15939042 0.16746858 -0.18568839 4284360704
0.15785547 0.1672772 -0.18587977 4284032512
0.15632051 0.16708583 -0.18607114 4283968000
0.15478556 0.16689444 -0.18626253 4283902976
0.1532506 0.16670306 -0.18645391 4283706624
0.15171565 0.16651168 -0.1866453 4283772416
0.14970334 0.1666076 -0.185807 4283642112
0.14769617 0.16670418 -0.18496808 4283116544
0.14616632 0.16651343 -0.18515883 4282590208
0.14463648 0.16632269 -0.18534957 4282064896
0.14263949 0.16642052 -0.18450937 4281867520
0.14064761 0.16651903 -0.18366848 4282130688
0.13912287 0.16632892 -0.18385859 4282393856
0.13759813 0.16613881 -0.1840487 4281803265
0.13515958 0.16652843 -0.18217438 4280686336
0.13363995 0.16633897 -0.18236385 4280620544
0.13212031 0.16614948 -0.18255332 4280620544
0.13015144 0.16625084 -0.18170963 4280685824
0.12863436 0.16606168 -0.18189879 4280489728
0.12711729 0.16587254 -0.18208793 4280423936
0.12515862 0.16597517 -0.18124297 4280423936
0.1236441 0.16578634 -0.1814318 4280226304
0.12212957 0.1655975 -0.18162064 4280421888
0.12061503 0.16540867 -0.18180947 4280488192
0.11910052 0.16521983 -0.18199831 4280292096
0.11758599 0.165031 -0.18218714 4280292096
0.11564517 0.16513586 -0.18133987 4280357120
0.11370951 0.16524135 -0.18049204 4280553472
0.11177896 0.16534746 -0.17964356 4280422912
0.10943487 0.16574889 -0.17775741 4280358400
0.10710104 0.16615157 -0.17587003 4280161024
0.10477744 0.16655552 -0.17398138 4280226560
0.10246401 0.16696076 -0.17209139 4280621317
0.1005692 0.16707134 -0.17123847 4280622855
0.098679498 0.16718258 -0.17038491 4279241984
0.096794911 0.16729441 -0.16953069 4279044608
0.094915397 0.16740693 -0.1686758 4279044352
0.093439184 0.16722289 -0.16885985 4278978560
0.09156736 0.16733631 -0.16800405 4279241216
0.089700639 0.16745041 -0.16714762 4282255616
0.088229537 0.16726699 -0.16733104 4283242505
0.086758435 0.16708358 -0.16751446 4286715651
0.084901929 0.16719894 -0.16665676 4286647552
0.083433382 0.16701584 -0.16683987 4286844160
0.082345106 0.16653331 -0.16806471 4286844928
0.081251718 0.16605014 -0.16929021 4287239681
0.080528438 0.16526628 -0.17155883 4287110144
0.07942228 0.16478154 -0.17278594 4287110144
0.078681082 0.16399546 -0.1750567 4286912000
0.077929698 0.16320808 -0.17732881 4286977792
0.076803118 0.1627208 -0.17855847 4287042816
0.076033838 0.16193122 -0.18083273 4287370752
0.07489448 0.16144234 -0.18206398 4287436544
0.073392719 0.16125509 -0.18225121 4287370240
0.071890965 0.16106786 -0.18243846 4287304448
0.070389211 0.16088061 -0.1826257 4287436032
0.068537824 0.16099659 -0.18176734 4287436032
0.067038618 0.16080967 -0.18195426 4287436032
0.065194882 0.16092663 -0.18109497 4287370240
0.063356273 0.16104423 -0.18023504 4287370240
0.061522756 0.16116244 -0.17937446 4287238656
0.059357468 0.16158615 -0.17746601 4287370240
0.057536725 0.16170597 -0.17660384 4287568128
0.05538933 0.16213189 -0.17469323 4287436544
0.053581342 0.16225332 -0.17382941 4287436544
0.051451828 0.16268148 -0.17191656 4287370240
0.049332518 0.16311091 -0.17000237 4287501056
0.047544975 0.16323487 -0.16913608 4287631872
0.045762535 0.16335948 -0.16826914 4287566848
0.043985214 0.16348469 -0.16740154 4287764224
0.042526878 0.16330287 -0.16758338 4287436032
0.041068543 0.16312104 -0.1677652 4287370240
0.0396102 0.16293921 -0.16794702 4287436032
0.037845638 0.16306604 -0.16707787 4287501824
0.036693528 0.16257556 -0.16831069 4287370240
0.035536289 0.16208445 -0.16954416 4287304448
0.034075409 0.16190231 -0.16972631 4287566848
0.032614511 0.16172016 -0.16990846 4287632640
0.031447064 0.16122776 -0.17114319 4287436032
0.030274507 0.16073471 -0.17237855 4287304448
0.02880851 0.16055194 -0.17256135 4287172864
0.027628308 0.16005795 -0.17379774 4287238656
0.02644299 0.15956332 -0.1750347 4287370240
0.025252555 0.15906805 -0.1762723 4287304448
0.024057016 0.15857217 -0.17751056 4287370752
0.022580799 0.15838811 -0.17769462 4287370752
0.021104582 0.15820406 -0.17787868 4287239680
0.019898845 0.15770686 -0.17911825 4287108096
0.018420072 0.15752248 -0.17930262 4286976512
0.016941302 0.15733811 -0.179487 4286384384
0.015462531 0.15715374 -0.17967138 4286187008
0.014244007 0.15665498 -0.18091249 4284876032
0.012762683 0.1564703 -0.18109719 4282714368
0.011281356 0.1562856 -0.18128188 4282319616
0.0098000318 0.1561009 -0.18146658 4281274624
0.0083187083 0.15591621 -0.18165128 4280032001
0.0068373852 0.15573151 -0.18183596 4279044608
0.0053560617 0.15554681 -0.18202066 4278781696
0.0038747343 0.15536213 -0.18220536 4278781696
0.0023934108 0.15517743 -0.18239005 4278650880
0.00091208715 0.15499274 -0.18257475 4278913280
-0.00056924007 0.15480804 -0.18275945 4278715904
-0.0020505637 0.15462334 -0.18294413 4278781696
-0.0035318872 0.15443866 -0.18312883 4278650880
-0.0050132107 0.15425396 -0.18331352 4278585088
-0.0064945361 0.15406926 -0.18349822 4278585344
-0.0079758614 0.15388457 -0.18368292 4278519552
-0.0094571849 0.15369987 -0.1838676 4278519552
-0.01093851 0.15351517 -0.1840523 4278585088
-0.012419834 0.15333049 -0.184237 4278322944
-0.013901159 0.15314579 -0.18442169 4278454528
-0.015382483 0.15296109 -0.18460639 4278650880
-0.016863806 0.15277641 -0.18479109 4278585088
-0.018549189 0.15291308 -0.18391202 4278453760
-0.02002796 0.15272871 -0.1840964 4278453760
-0.021705691 0.15286639 -0.18321635 4278519552
-0.022985499 0.15235996 -0.18446516 4278650880
-0.024658125 0.15249828 -0.18358447 4278650880
-0.02613434 0.15231422 -0.18376853 4278585088
-0.027988024 0.15277675 -0.18182127 4278584832
-0.029459132 0.15259333 -0.18200469 4278650880
-0.030930242 0.15240991 -0.18218812 4278650880
-0.032582421 0.15255076 -0.18130495 4278650880
-0.034050975 0.15236765 -0.18148805 4278585088
-0.035519529 0.15218455 -0.18167114 4278585344
-0.037161503 0.15232666 -0.18078661 4278585344
-0.038627505 0.15214388 -0.1809694 4278782464
-0.040093504 0.15196109 -0.18115218 4278782464
-0.041559506 0.15177831 -0.18133497 4278650880
-0.043188699 0.15192202 -0.18044892 4278650880
-0.044652145 0.15173955 -0.18063138 4278979072
-0.046115592 0.15155709 -0.18081386 4278979072
-0.04773457 0.15170208 -0.17992654 4278979072
-0.049195461 0.15151992 -0.1801087 4278913280
-0.050806779 0.15166584 -0.17922039 4278979072
-0.052265115 0.15148401 -0.17940223 4278848256
-0.053868771 0.15163091 -0.17851301 4279307776
-0.055324554 0.1514494 -0.17869452 4279636741
-0.056920554 0.15159725 -0.17780425 4280360712
-0.058373787 0.15141605 -0.17798544 4280427009
-0.059962116 0.15156485 -0.17709431 4280623616
-0.061412796 0.15138398 -0.17727518 4280689409
-0.062863469 0.15120311 -0.17745605 4280427008
-0.064569026 0.15168412 -0.17549033 4280558593
-0.066139482 0.15183517 -0.17459691 4280623616
-0.067704827 0.15198682 -0.17370288 4280427008
-0.069384843 0.15247102 -0.17173401 4280492800
-0.071054645 0.15295652 -0.16976377 4280427008
-0.07259956 0.15311073 -0.16886723 4280229632
-0.074139364 0.15326557 -0.16797002 4280360448
-0.075674057 0.15342106 -0.16707219 4280492032
-0.077203646 0.15357716 -0.16617371 4282399754
-0.078623675 0.15340011 -0.16635077 4284044579
-0.080145605 0.15355721 -0.16545129 4284637720
-0.081563085 0.15338048 -0.16562802 4284506648
-0.083077349 0.15353851 -0.16472766 4283517202
-0.084492266 0.1533621 -0.16490407 4281673728
-0.085907184 0.15318568 -0.16508049 4281936900
-0.08741124 0.15334497 -0.16417882 4283584540
-0.088823602 0.15316887 -0.16435492 4283782934
-0.090067923 0.15232007 -0.16668843 4284243485
-0.091403931 0.15180664 -0.16794424 4284440864
-0.092745043 0.15129261 -0.16920064 4284572704
-0.094091266 0.15077792 -0.17045766 4283845134
-0.095368795 0.14992498 -0.17279531 4281541890
-0.096656531 0.14907074 -0.1751343 4279636224
-0.098023191 0.14855351 -0.17639387 4279570432
-0.099394955 0.14803563 -0.17765407 4279636224
-0.10077183 0.14751713 -0.17891493 4279505408
-0.10221484 0.14733721 -0.17909485 4279702016
-0.10365785 0.1471573 -0.17927477 4279833602
-0.10510086 0.14697738 -0.1794547 4281015562
-0.10659725 0.14713763 -0.17855208 4281608453
-0.10803772 0.14695802 -0.17873167 4281806336
-0.10947818 0.14677843 -0.17891127 4281806848
-0.11091864 0.14659883 -0.17909087 4281806848
-0.11235909 0.14641923 -0.17927048 4281872642
-0.11384016 0.14658141 -0.17836596 4281741056
-0.11527806 0.14640214 -0.17854524 4282002691
-0.11671597 0.14622284 -0.17872453 4283180292
-0.11815389 0.14604357 -0.1789038 4283114499
-0.11959178 0.14586428 -0.17908308 4284684545
-0.12102969 0.145685 -0.17926237 4285208322
-0.12246759 0.14550573 -0.17944165 4285274368
-0.1239055 0.14532644 -0.17962092 4288771384
-0.12534341 0.14514716 -0.17980021 4289100349
-0.12678131 0.14496788 -0.17997949 4288055849
-0.12821922 0.14478859 -0.18015876 4287990054
-0.12966964 0.14495459 -0.17925043 4288055595
-0.13110499 0.14477563 -0.1794294 4288055595
-0.13254035 0.14459667 -0.17960836 4287989802
-0.1339757 0.1444177 -0.17978732 4288055595
-0.13540876 0.1438922 -0.18105517 4287990315
-0.13684665 0.14371291 -0.18123445 4288187694
-0.13828456 0.14353363 -0.18141374 4288056108
-0.13972248 0.14335436 -0.18159302 4287794222
-0.1411683 0.14282724 -0.18286246 4287727145
-0.14259829 0.14299579 -0.18195158 4287726884
-0.14403619 0.14281651 -0.18213086 4288121901
-0.14548968 0.14228845 -0.18340126 4288121901
-0.14693014 0.14210884 -0.18358086 4287595827
-0.14834991 0.14227867 -0.1826687 4287464239
-0.14978781 0.14209938 -0.18284799 4287267626
-0.15122573 0.1419201 -0.18302727 4287725110
-0.15266363 0.14174081 -0.18320654 4285882906
-0.15407063 0.14191224 -0.1822928 4284554752
-0.15550597 0.14173327 -0.18247177 4284355584
-0.15690531 0.14190562 -0.18155704 4284093696
-0.15833811 0.14172697 -0.18173569 4281799680
-0.15977091 0.14154834 -0.18191433 4281536512
-0.16116002 0.14172199 -0.1809983 4280227840
-0.16259028 0.14154367 -0.18117662 4280031232
-0.16397172 0.14171827 -0.18025969 4280097024
-0.16539942 0.14154026 -0.1804377 4280228610
-0.16677321 0.14171578 -0.17951979 4280162817
-0.16819836 0.1415381 -0.17969748 4280557573
-0.16962348 0.14136042 -0.17987517 4281150466
-0.17104863 0.14118272 -0.18005286 4281609988
-0.17247376 0.14100502 -0.18023054 4281609988
-0.17383224 0.1411825 -0.17931075 4281609988
-0.17525481 0.14100513 -0.17948812 4281675781
-0.17660563 0.14118353 -0.17856735 4281609988
-0.17802566 0.14100647 -0.17874441 4281741576
-0.17944568 0.14082941 -0.17892146 4281937672
-0.18078627 0.14100914 -0.17799936 4282069258
-0.18220375 0.14083239 -0.17817611 4282068486
-0.18362121 0.14065567 -0.17835283 4282134279
-0.1850387 0.14047892 -0.17852958 4282003463
-0.18645617 0.1403022 -0.1787063 4282003976
-0.18778144 0.1404838 -0.17778237 4282003976
-0.18910159 0.14066602 -0.17685777 4282069769
-0.19051398 0.14048992 -0.17703387 4282070021
-0.19182648 0.14067312 -0.17610835 4282004226
-0.19323628 0.14049734 -0.17628412 4282004226
-0.19464611 0.14032155 -0.17645991 4282004226
-0.1960559 0.14014578 -0.17663568 4282004228
-0.19746572 0.13997 -0.17681146 4282070021
-0.19887553 0.13979422 -0.17698723 4282070021
-0.20028535 0.13961844 -0.17716302 4282004228
-0.20181289 0.13908115 -0.17844264 4282004228
-0.20322527 0.13890505 -0.17861874 4282070021
-0.20463763 0.13872895 -0.17879483 4281938181
-0.20604999 0.13855286 -0.17897093 4282135047
-0.20746237 0.13837676 -0.17914703 4282266633
-0.20887473 0.13820066 -0.17932312 4282135047
-0.21015403 0.13838799 -0.17839347 4282266633
-0.21156383 0.13821222 -0.17856924 4282267146
-0.21283548 0.13840051 -0.17763853 4282004228
-0.21424273 0.13822505 -0.17781399 4281872642
-0.2155067 0.13841429 -0.17688242 4282070021
-0.21676558 0.13860418 -0.1759502 4282070021
-0.21801934 0.13879468 -0.17501733 4282201607
-0.21941893 0.13862017 -0.17519183 4282201607
-0.22066502 0.13881165 -0.17425802 4282070021
-0.22190601 0.13900378 -0.17332351 4282266885
-0.22330049 0.13882992 -0.17349739 4282135299
-0.22469497 0.13865604 -0.17367126 4282266883
-0.22608948 0.13848217 -0.17384513 4282069504
-0.22748396 0.1383083 -0.17401899 4282135297
-0.22887844 0.13813443 -0.17419286 4281938432
-0.23010156 0.13832876 -0.17325616 4282004224
-0.23149349 0.13815521 -0.17342971 4281938432
-0.23288542 0.13798165 -0.17360327 4282069760
-0.23427735 0.13780811 -0.17377681 4282793479
-0.2356693 0.13763456 -0.17395036 4284702232
-0.23687708 0.13783081 -0.17301178 4284307472
-0.23807974 0.13802768 -0.17207253 4286478112
-0.23927733 0.1382252 -0.17113268 4286939174
-0.24066159 0.13805261 -0.17130527 4286939174
-0.24185149 0.13825111 -0.17036439 4286873122
-0.24283938 0.1388216 -0.16830921 4285753623
-0.24401653 0.13902166 -0.1673668 4285689123
-0.24518853 0.13922238 -0.16642368 4286215971
-0.24635547 0.13942373 -0.16548 4286281764
-0.24751729 0.13962568 -0.16453566 4286149660
-0.24867399 0.13982831 -0.16359071 4286873633
-0.25003782 0.13965826 -0.16376075 4286873631
-0.25118688 0.13986184 -0.16281486 4286413861
-0.25254816 0.1396921 -0.16298458 4285755931
-0.25390944 0.13952237 -0.1631543 4281345536
-0.25504827 0.13972722 -0.16220704 4280687872
-0.25640699 0.13955781 -0.16237645 4280360448
-0.25776571 0.13938841 -0.16254586 4280098048
-0.25912446 0.139219 -0.16271527 4280163840
-0.26048321 0.13904959 -0.16288468 4281215755
-0.26184192 0.13888018 -0.16305408 4281479429
-0.26343843 0.13833427 -0.1643424 4281807365
-0.26479974 0.13816455 -0.16451213 4281938183
-0.26640391 0.13761771 -0.16580132 4281938183
-0.26801318 0.13707021 -0.16709113 4281741574
-0.2696276 0.13652211 -0.16838162 4281873162
-0.27124709 0.13597335 -0.1696727 4281873162
-0.27312481 0.13504554 -0.17208526 4281741576
-0.27475709 0.1344952 -0.17337793 4281215746
-0.27639446 0.13394423 -0.17467128 4280623620
-0.27803695 0.13339257 -0.17596531 4279309312
-0.27942121 0.13321999 -0.17613789 4279439621
-0.28107136 0.13266739 -0.17743282 4279637000
-0.28245819 0.13249448 -0.17760573 4281346064
-0.28384501 0.13232157 -0.17777865 4281477898
-0.28523186 0.13214865 -0.17795156 4280886529
-0.28634259 0.13235702 -0.17700087 4280754944
-0.28772685 0.13218442 -0.17717347 4280754944
-0.28911114 0.13201182 -0.17734607 4281017861
-0.29021165 0.13222148 -0.17639403 4281281035
-0.29159334 0.1320492 -0.1765663 4281282570
-0.29297507 0.13187692 -0.17673859 4281479949
-0.29435679 0.13170464 -0.17691086 4281545994
-0.29573849 0.13153237 -0.17708313 4281873160
-0.29682371 0.13174388 -0.17612925 4282003463
-0.29820287 0.13157193 -0.17630121 4281741572
-0.29988363 0.13101554 -0.17759997 4281675779
0.23670134 0.20339516 -0.097506173 4283118848
0.23535286 0.20322701 -0.09767431 4283118848
0.23470645 0.20280142 -0.098845996 4283315712
0.2333554 0.20263296 -0.099014446 4283249920
0.23200433 0.20246451 -0.099182904 4283249920
0.23134768 0.20203763 -0.10035578 4283184128
0.23068592 0.20161012 -0.10152929 4283118336
0.22932974 0.20144102 -0.10169838 4283974146
0.22866032 0.20101257 -0.10287288 4284368904
0.22798581 0.20058344 -0.10404804 4285289222
0.22662456 0.20041372 -0.10421777 4285355265
0.22594237 0.19998369 -0.10539385 4285750277
0.22525507 0.19955298 -0.10657055 4285750277
0.22456264 0.19912164 -0.10774789 4286012164
0.22386514 0.1986897 -0.10892588 4285945856
0.22316256 0.19825706 -0.11010455 4285682688
0.22245485 0.19782384 -0.11128382 4284762368
0.22107823 0.19765221 -0.11145546 4284301824
0.22036283 0.197218 -0.11263566 4283776000
0.21898365 0.19704604 -0.11280762 4283645696
0.21826062 0.19661088 -0.11398877 4283514122
0.21687889 0.19643861 -0.11416104 4283514122
0.21549718 0.19626634 -0.11433332 4283317774
0.21346703 0.19635822 -0.11349544 4283318028
0.21208785 0.19618626 -0.1136674 4283253001
0.21006534 0.19627909 -0.11282856 4283253001
0.20804796 0.19637254 -0.11198907 4283450380
0.19678147 0.19738284 -0.10575657 4287597356
0.1826172 0.19596182 -0.10643159 4282461186
0.18066366 0.19606325 -0.10558416 4281805062
0.1793126 0.19589479 -0.10575261 4282135051
0.17736666 0.19599718 -0.10490415 4282003978
0.17601815 0.19582905 -0.10507227 4280359942
0.17407992 0.19593239 -0.10422294 4279833600
0.17214681 0.19603635 -0.10337293 4279571459
0.171388 0.19559675 -0.10455857 4280294149
0.16946 0.19570136 -0.10370793 4281345542
0.20600849 0.17403811 -0.18206914 4282399754
0.20447099 0.17384641 -0.18226084 4282333959
0.20293348 0.17365471 -0.18245254 4282399752
0.20139597 0.17346302 -0.18264423 4282727947
0.19985844 0.17327131 -0.18283594 4283055629
0.19832094 0.17307961 -0.18302764 4283843341
0.19678342 0.17288791 -0.18321934 4284172306
0.19524591 0.1726962 -0.18341105 4284235269
0.1937084 0.17250451 -0.18360274 4285281280
0.1921709 0.17231281 -0.18379444 4287187456
0.1900896 0.17239834 -0.18296288 4288899072
0.18855464 0.17220695 -0.18315426 4288899072
0.18701969 0.17201558 -0.18334563 4289293313
0.18494865 0.17210233 -0.18251283 4289622532
0.18341625 0.17191127 -0.1827039 4290409984
0.18135288 0.17199902 -0.18187015 4291789056
0.17982304 0.17180827 -0.1820609 4292118020
0.17829317 0.17161752 -0.18225165 4294088199
0.17676333 0.17142679 -0.18244238 4294549504
0.17523348 0.17123604 -0.18263313 4294947074
0.17370361 0.17104529 -0.18282388 4294683392
0.17217377 0.17085455 -0.18301462 4294486016
0.17013083 0.17094481 -0.18217832 4292775168
0.16860352 0.17075439 -0.18236874 4291790592
0.16758423 0.17028232 -0.18358685 4291003648
0.16605437 0.17009157 -0.1837776 4289687040
0.16452453 0.16990082 -0.18396835 4288371200
0.16299467 0.16971008 -0.18415909 4286200064
0.16196258 0.16923639 -0.18537878 4285017088
0.16043019 0.16904533 -0.18556984 4284426496
0.15939042 0.1685707 -0.18679051 4284360704
0.15785547 0.16837932 -0.18698189 4284032512
0.15583298 0.16847214 -0.18614303 4283968000
0.15430057 0.16828108 -0.18633409 4283902976
0.15276816 0.16809002 -0.18652515 4283706624
0.15075587 0.16818412 -0.18568505 4283772416
0.14922601 0.16799338 -0.18587579 4283642112
0.14722139 0.16808842 -0.18503471 4283116544
0.14569409 0.167898 -0.18522513 4282590208
0.14416681 0.16770756 -0.18541555 4282064896
0.14217235 0.16780393 -0.18457316 4281867520
0.14064761 0.16761382 -0.18476327 4282130688
0.13866086 0.16771111 -0.18391998 4282393856
0.13667922 0.16780902 -0.18307602 4281803265
0.13515958 0.16761956 -0.18326549 4280686336
0.13318561 0.16771844 -0.18242061 4280620544
0.13166851 0.16752928 -0.18260977 4280620544
0.1297022 0.16762911 -0.1817639 4280685824
0.12818767 0.16744027 -0.18195273 4280489728
0.12667316 0.16725144 -0.18214157 4280423936
0.12515862 0.1670626 -0.1823304 4280423936
0.1236441 0.16687377 -0.18251924 4280226304
0.12169307 0.16697554 -0.18167143 4280421888
0.1201811 0.16678703 -0.18185994 4280488192
0.11866913 0.1665985 -0.18204845 4280292096
0.11672835 0.16670153 -0.18119943 4280292096
0.11479267 0.16680518 -0.18034975 4280357120
0.11328581 0.16661729 -0.18053763 4280553472
0.11093663 0.16701441 -0.17864843 4280422912
0.10859769 0.16741279 -0.17675805 4280358400
0.10626896 0.16781244 -0.17486636 4280161024
0.10436392 0.16791992 -0.1740128 4280226560
0.10205307 0.1683218 -0.17211892 4280621317
0.10016083 0.16843086 -0.17126381 4280622855
0.097867832 0.16883498 -0.16936761 4279241984
0.095988341 0.16894566 -0.16851094 4279044608
0.094113976 0.16905695 -0.16765364 4279044352
0.092642859 0.16887353 -0.16783705 4278978560
0.091171756 0.16869012 -0.16802049 4279241216
0.089700639 0.1685067 -0.16820391 4282255616
0.087839045 0.16861957 -0.16734499 4283242505
0.086370498 0.16843647 -0.16752808 4286715651
0.084516518 0.16855034 -0.16666818 4286647552
0.083050519 0.16836755 -0.16685095 4286844160
0.081964828 0.16788717 -0.16807739 4286844928
0.080873996 0.16740617 -0.16930443 4287239681
0.080153234 0.16662629 -0.17157631 4287110144
0.079049662 0.16614369 -0.172805 4287110144
0.078311019 0.1653616 -0.17507912 4286912000
0.077194653 0.1648774 -0.17630932 4286977792
0.076438159 0.16409308 -0.17858572 4287042816
0.075671434 0.16330749 -0.18086337 4287370752
0.074534632 0.16282074 -0.18209611 4287436544
0.073035426 0.16263382 -0.18228303 4287370240
0.071536228 0.16244689 -0.18246995 4287304448
0.070037022 0.16225997 -0.18265687 4287436032
0.068537824 0.16207305 -0.18284379 4287436032
0.066691533 0.16218784 -0.18198299 4287436032
0.064850353 0.16230327 -0.18112153 4287370240
0.063356273 0.16211699 -0.18130781 4287370240
0.061862174 0.1619307 -0.1814941 4287238656
0.060031217 0.16204742 -0.18063138 4287370240
0.057871036 0.16246811 -0.17871863 4287568128
0.056052841 0.16258641 -0.17785431 4287436544
0.053910565 0.1630093 -0.17593938 4287436544
0.052105125 0.1631292 -0.1750734 4287370240
0.049980726 0.16355434 -0.17315626 4287501056
0.048188072 0.16367581 -0.17228875 4287631872
0.046719514 0.16349271 -0.17247185 4287566848
0.044618085 0.16392072 -0.17055176 4287764224
0.043154635 0.16373824 -0.17073423 4287436032
0.041691191 0.16355577 -0.17091669 4287370240
0.03991897 0.16367982 -0.17004666 4287436032
0.038458075 0.16349767 -0.17022879 4287501824
0.037300851 0.16300838 -0.17146409 4287370240
0.035837401 0.16282591 -0.17164655 4287304448
0.034373958 0.16264345 -0.17182902 4287435264
0.033206511 0.1621529 -0.1730656 4287632640
0.031740509 0.16197012 -0.1732484 4287436032
0.030565415 0.16147858 -0.17448598 4287304448
0.029096864 0.16129547 -0.17466907 4287172864
0.027914092 0.16080302 -0.17590757 4287238656
0.02644299 0.1606196 -0.176091 4287370240
0.025252555 0.16012616 -0.17733042 4287304448
0.023778891 0.15994243 -0.17751417 4287370752
0.022580799 0.15944804 -0.17875455 4287370752
0.021104582 0.15926398 -0.17893861 4287239680
0.019628368 0.15907992 -0.17912267 4287108096
0.018420072 0.15858427 -0.18036442 4286976512
0.016941302 0.15839989 -0.18054879 4286384384
0.015462531 0.15821552 -0.18073316 4286187008
0.013983761 0.15803114 -0.18091753 4284876032
0.012504991 0.15784676 -0.18110192 4282714368
0.011026217 0.15766239 -0.18128629 4282319616
0.0095474469 0.15747802 -0.18147066 4281274624
0.0080686808 0.15729363 -0.18165503 4280032001
0.0065899105 0.15710926 -0.18183942 4279044608
0.0051111402 0.15692489 -0.18202379 4278781696
0.0036323664 0.15674052 -0.18220817 4278781696
0.0021535961 0.15655613 -0.18239254 4278650880
0.00067482603 0.15637176 -0.18257692 4278913280
-0.00080394413 0.15618739 -0.1827613 4278715904
-0.0022827142 0.156003 -0.18294567 4278781696
-0.0037614843 0.15581863 -0.18313006 4278650880
-0.0052402546 0.15563425 -0.18331443 4278585088
-0.0067190249 0.15544988 -0.1834988 4278585344
-0.0081977965 0.1552655 -0.18368317 4278519552
-0.0098959608 0.15539877 -0.18280382 4278519552
-0.011372178 0.15521473 -0.18298787 4278585088
-0.012634107 0.15471238 -0.1842363 4278322944
-0.014324611 0.15484661 -0.18335599 4278454528
-0.015591649 0.15434362 -0.18460506 4278650880
-0.017277043 0.15447849 -0.18372411 4278585088
-0.018753259 0.15429443 -0.18390816 4278453760
-0.020229474 0.15411037 -0.18409222 4278453760
-0.02190464 0.15424652 -0.18321007 4278519552
-0.023181908 0.15374225 -0.18446034 4278650880
-0.024851965 0.15387905 -0.18357755 4278650880
-0.026516916 0.15401645 -0.18269414 4278585088
-0.027988024 0.15383303 -0.18287756 4278584832
-0.029645313 0.15397139 -0.18199317 4278650880
-0.031113867 0.15378828 -0.18217628 4278650880
-0.032763503 0.15392764 -0.18129088 4278650880
-0.034229502 0.15374485 -0.18147367 4278585088
-0.035695504 0.15356207 -0.18165645 4278585344
-0.037334915 0.15370265 -0.18076983 4278585344
-0.038798362 0.15352018 -0.1809523 4278782464
-0.040261805 0.15333772 -0.18113476 4278782464
-0.041891001 0.15347959 -0.18024689 4278650880
-0.043351892 0.15329744 -0.18042903 4278650880
-0.044812784 0.15311529 -0.18061118 4278979072
-0.046431765 0.15325844 -0.17972203 4278979072
-0.047890104 0.15307662 -0.17990386 4278979072
-0.049501419 0.1532207 -0.17901373 4278913280
-0.050957203 0.15303919 -0.17919524 4278979072
-0.052560866 0.15318426 -0.17830412 4278848256
-0.054014098 0.15300308 -0.17848532 4279307776
-0.055467326 0.15282188 -0.1786665 4279636741
-0.057060763 0.1529682 -0.17777415 4280360712
-0.05851144 0.15278733 -0.17795503 4280427009
-0.059962116 0.15260646 -0.1781359 4280623616
-0.061545342 0.15275405 -0.17724229 4280558593
-0.063123457 0.15290231 -0.17634805 4280427008
-0.064696468 0.15305118 -0.17545308 4280558593
-0.066264369 0.1532007 -0.17455757 4280623616
-0.067827158 0.15335083 -0.1736614 4280427008
-0.069504619 0.15383169 -0.17168853 4280492800
-0.071054645 0.15398344 -0.1707907 4280427008
-0.072714224 0.15446651 -0.1688156 4280229632
-0.07425148 0.15461986 -0.16791625 4280360448
-0.075783618 0.15477383 -0.16701628 4280492032
-0.077310659 0.15492845 -0.16611558 4282399754
-0.078832582 0.15508369 -0.16521433 4284044579
-0.080247506 0.15490727 -0.16539074 4284637720
-0.08176177 0.15506345 -0.16448852 4284506648
-0.083174139 0.15488736 -0.16466463 4283517202
-0.084680736 0.15504453 -0.16376147 4281673728
-0.08609055 0.15486874 -0.16393724 4281936900
-0.087500364 0.15469296 -0.16411301 4283584540
-0.088910177 0.15451719 -0.1642888 4283782934
-0.090235971 0.15400688 -0.16554511 4284243485
-0.091566868 0.15349595 -0.16680206 4284441118
-0.092902876 0.15298437 -0.16805965 4284572704
-0.094167627 0.15213667 -0.17039944 4283845134
-0.095442601 0.1512877 -0.17274044 4281541890
-0.096799038 0.15077358 -0.17400056 4279636224
-0.098091885 0.14992237 -0.17634386 4279570432
-0.099461094 0.14940664 -0.17760558 4279636224
-0.10083541 0.14889032 -0.17886795 4279505408
-0.10227588 0.14871071 -0.17904755 4279702016
-0.10371633 0.14853111 -0.17922716 4279833602
-0.10515679 0.14835152 -0.17940676 4281015562
-0.10659725 0.14817192 -0.17958635 4281608453
-0.10808853 0.14833096 -0.17868127 4281806336
-0.10947818 0.14781271 -0.17994556 4281806848
-0.11096435 0.1479724 -0.17903982 4281806848
-0.11240225 0.14779311 -0.17921911 4281872642
-0.11384016 0.14761384 -0.17939839 4281741056
-0.11527806 0.14743456 -0.17957766 4282002691
-0.11675146 0.14759585 -0.17867038 4283180292
-0.11818682 0.14741689 -0.17884934 4283114499
-0.11962216 0.14723793 -0.1790283 4284684545
-0.12105753 0.14705896 -0.17920727 4285208322
-0.12249287 0.14688 -0.17938621 4285274368
-0.12392823 0.14670104 -0.17956518 4288771384
-0.12536357 0.14652207 -0.17974414 4289100349
-0.12679893 0.14634313 -0.1799231 4288055849
-0.12823428 0.14616415 -0.18010207 4287990054
-0.12966964 0.1459852 -0.18028103 4288055595
-0.13111494 0.14614999 -0.17937024 4288055595
-0.13254775 0.14597136 -0.17954887 4287989802
-0.13398053 0.14579271 -0.17972752 4288055595
-0.13541105 0.14526935 -0.18099688 4287990315
-0.13684639 0.14509039 -0.18117584 4288187694
-0.13828175 0.14491142 -0.18135481 4287728429
-0.1397171 0.14473246 -0.18153377 4287794222
-0.14115246 0.1445535 -0.18171273 4287727145
-0.14258781 0.14437453 -0.18189169 4287726884
-0.14402317 0.14419557 -0.18207066 4288121901
-0.14547409 0.14366965 -0.18334258 4288121901
-0.14689386 0.14383765 -0.18242858 4287595827
-0.14832921 0.14365868 -0.18260755 4287464239
-0.14976457 0.14347972 -0.18278651 4287267626
-0.15119992 0.14330076 -0.18296547 4287725110
-0.15263528 0.14312179 -0.18314444 4285882906
-0.15403971 0.14329168 -0.18222854 4284554752
-0.15547252 0.14311305 -0.18240719 4284355584
-0.15690531 0.1429344 -0.18258582 4284093696
-0.15829955 0.14310557 -0.18166858 4281799680
-0.15972978 0.14292724 -0.1818469 4281536512
-0.16111635 0.14309937 -0.18092877 4280227840
-0.16254403 0.14292137 -0.18110678 4280097024
-0.16392295 0.14309442 -0.18018767 4280097024
-0.16534808 0.14291674 -0.18036537 4280228610
-0.16677321 0.14273904 -0.18054305 4280162817
-0.16819836 0.14256136 -0.18072075 4280557573
-0.16962348 0.14238366 -0.18089843 4281150466
-0.17098707 0.14255866 -0.17997745 4281609988
-0.17240965 0.1423813 -0.18015482 4281609988
-0.17376557 0.14255723 -0.17923287 4281609988
-0.17518561 0.14238019 -0.17940992 4281675781
-0.17653385 0.1425571 -0.17848693 4281609988
-0.17795132 0.14238036 -0.17866366 4281741576
-0.17936879 0.14220363 -0.1788404 4281937672
-0.18070686 0.1423818 -0.17791623 4282069258
-0.18212177 0.14220539 -0.17809264 4282068486
-0.18353668 0.14202897 -0.17826904 4282134279
-0.1849516 0.14185256 -0.17844547 4282003463
-0.18627687 0.14203231 -0.17751968 4282003976
-0.18768923 0.14185621 -0.17769577 4282003976
-0.18910159 0.14168011 -0.17787187 4282069769
-0.19041666 0.14186116 -0.17694484 4282070021
-0.19182648 0.14168538 -0.17712061 4282004226
-0.19323628 0.14150959 -0.17729639 4282004226
-0.19464611 0.14133382 -0.17747216 4282004226
-0.1960559 0.14115804 -0.17764795 4282004228
-0.19746572 0.14098227 -0.17782372 4282070021
-0.19887553 0.14080648 -0.1779995 4282070021
-0.20028535 0.14063071 -0.17817527 4282004228
-0.20169514 0.14045493 -0.17835106 4282004228
-0.20310499 0.14027914 -0.17852683 4282070021
-0.20451479 0.14010337 -0.17870261 4281938181
-0.20592459 0.1399276 -0.17887838 4282135047
-0.2073344 0.13975182 -0.17905417 4282266633
-0.20874421 0.13957603 -0.17922994 4282135047
-0.21015403 0.13940026 -0.17940572 4282266633
-0.2114282 0.13958642 -0.17847352 4282267146
-0.21269731 0.13977318 -0.17754073 4282004228
-0.214102 0.13959803 -0.17771587 4281872642
-0.21536341 0.13978577 -0.17678215 4282070021
-0.21661974 0.1399741 -0.17584775 4282070021
-0.21787094 0.14016311 -0.17491275 4282201607
-0.21926798 0.13998893 -0.17508693 4282201607
-0.2205115 0.14017889 -0.17415088 4282070021
-0.22190601 0.14000502 -0.17432477 4282266885
-0.22314188 0.14019594 -0.17338784 4282135299
-0.22453381 0.14002238 -0.17356139 4282266883
-0.22592576 0.13984883 -0.17373495 4282069504
-0.22731769 0.13967529 -0.1739085 4282135297
-0.22870961 0.13950174 -0.17408204 4281938432
-0.23010156 0.13932818 -0.17425559 4282004224
-0.23149349 0.13915464 -0.17442915 4281938432
-0.23288542 0.13898109 -0.17460269 4282069760
-0.23427735 0.13880754 -0.17477624 4282793479
-0.2354877 0.13900164 -0.17383614 4284702232
-0.23669292 0.13919635 -0.17289539 4284307472
-0.23807974 0.13902344 -0.1730683 4286478112
-0.23927733 0.13921914 -0.17212661 4286939174
-0.24046978 0.13941546 -0.1711842 4286939174
-0.24165712 0.13961242 -0.17024124 4286873122
-0.24283938 0.13981003 -0.16929764 4285753623
-0.24401653 0.14000824 -0.16835338 4285689123
-0.24498652 0.14057732 -0.16629222 4286215971
-0.2461509 0.14077714 -0.16534638 4286281764
-0.24751729 0.14060678 -0.16551675 4286149660
-0.24867399 0.14080757 -0.16456997 4286873633
-0.24982558 0.14100897 -0.16362253 4286873631
-0.25097209 0.14121105 -0.1626744 4286413861
-0.25233081 0.14104164 -0.16284381 4285755931
-0.25368953 0.14087223 -0.16301322 4281345536
-0.25482583 0.14107554 -0.16206387 4280687872
-0.25618199 0.14090645 -0.16223297 4280360448
-0.25753817 0.14073735 -0.16240205 4280098048
-0.25889435 0.14056827 -0.16257115 4280163840
-0.26025054 0.14039917 -0.16274023 4281215755
-0.26160669 0.14023009 -0.16290933 4281479429
-0.26320064 0.13968636 -0.16419908 4281807365
-0.26455939 0.13951695 -0.1643685 4281938183
-0.26616102 0.13897224 -0.16565926 4281938183
-0.26776776 0.13842691 -0.16695061 4281741574
-0.26937959 0.13788094 -0.16824259 4281873162
-0.27099654 0.13733433 -0.1695352 4281873162
-0.27261856 0.1367871 -0.17082846 4281741576
-0.27450141 0.13586234 -0.17324533 4281215746
-0.27613625 0.1353135 -0.17454016 4280623620
-0.27777615 0.13476403 -0.17583562 4279309312
-0.27915788 0.13459174 -0.17600791 4279439621
-0.2808055 0.13404131 -0.17730442 4279637000
-0.28218976 0.13386872 -0.17747702 4281346064
-0.28357401 0.13369612 -0.17764962 4281477898
-0.2849583 0.13352354 -0.1778222 4280886529
-0.28606647 0.13373037 -0.17686929 4280754944
-0.2874482 0.13355809 -0.17704156 4280754944
-0.28882992 0.13338582 -0.17721383 4281017861
-0.28992787 0.13359393 -0.17625973 4281281035
-0.29130703 0.13342197 -0.17643169 4281282570
-0.29268619 0.13325001 -0.17660365 4281479949
-0.29377395 0.1334594 -0.17564826 4281545994
-0.29544455 0.13290611 -0.17694755 4281873160
-0.29652718 0.13311613 -0.17599154 4282003463
-0.29820287 0.13256219 -0.17729147 4281741572
-0.29958203 0.13239023 -0.17746343 4281675779
0.23868613 0.20495403 -0.097134113 4283380736
0.23804989 0.20453155 -0.098306298 4283315712
0.23670134 0.20436341 -0.098474436 4283118848
0.23535286 0.20419528 -0.098642573 4283118848
0.23400433 0.20402715 -0.09881071 4283315712
0.23265584 0.20385902 -0.09897884 4283249920
0.23200433 0.20343459 -0.10015298 4283249920
0.23134768 0.20300956 -0.10132771 4283184128
0.23068592 0.20258388 -0.10250305 4283118336
0.22932974 0.20241478 -0.10267214 4283447296
0.22866032 0.20198818 -0.10384847 4284368904
0.22798581 0.20156087 -0.10502547 4285289222
0.22730619 0.20113297 -0.10620305 4285355265
0.22662148 0.20070444 -0.10738128 4285750277
0.22593163 0.20027526 -0.10856013 4285750277
0.22456264 0.20010456 -0.10873082 4286012164
0.2245366 0.19941498 -0.11091983 4285945856
0.22383143 0.19898388 -0.11210059 4285682688
0.22245485 0.19881225 -0.11227223 4285287936
0.22174199 0.19838022 -0.11345396 4284301824
0.22102405 0.19794753 -0.11463632 4283776000
0.21964233 0.19777526 -0.11480859 4283645696
0.21891677 0.19734162 -0.11599198 4283514122
0.21753247 0.19716902 -0.11616457 4283514122
0.21549718 0.19725843 -0.11532541 4283317774
0.21411546 0.19708616 -0.11549769 4283318028
0.21273375 0.19691388 -0.11566997 4283253001
0.21070866 0.19700456 -0.11482962 4283253001
0.20868872 0.19709586 -0.11398861 4283450380
0.20667389 0.19718783 -0.11314698 4283187721
0.20402844 0.19754432 -0.11129107 4284633366
0.20202635 0.19763787 -0.11044785 4286541604
0.19939883 0.19799659 -0.10858975 4288188716
0.19678147 0.1983566 -0.10673033 4288188716
0.19479983 0.1984527 -0.10588457 4285557773
0.1826172 0.19693375 -0.10740352 4282461186
0.1812636 0.19676498 -0.10757229 4281805062
0.17990996 0.19659621 -0.10774107 4282135051
0.17796151 0.19669642 -0.10689114 4282003978
0.17661045 0.19652796 -0.10705959 4280359942
0.17407992 0.1968988 -0.10518934 4279833600
0.17273398 0.19673099 -0.10535716 4279571459
0.171388 0.19656317 -0.10552498 4280294149
0.17004204 0.19639535 -0.10569279 4281345542
0.20543918 0.17541428 -0.18215117 4282399754
0.20390423 0.17522289 -0.18234256 4282333959
0.20236927 0.17503151 -0.18253393 4282399752
0.20083432 0.17484014 -0.18272531 4282727947
0.19929935 0.17464875 -0.1829167 4283055629
0.1977644 0.17445737 -0.18310808 4283843341
0.19622944 0.17426598 -0.18329947 4284172306
0.19469447 0.17407461 -0.18349084 4284235269
0.19315952 0.17388321 -0.18368222 4285281280
0.19162457 0.17369184 -0.18387361 4287187456
0.1900896 0.17350045 -0.18406498 4288899072
0.18801346 0.17358476 -0.18323098 4288899072
0.18594244 0.17366971 -0.18239637 4289293313
0.18441257 0.17347896 -0.18258712 4289622532
0.18288273 0.17328821 -0.18277787 4290409984
0.18082191 0.17337441 -0.18194194 4291789056
0.17929462 0.17318399 -0.18213238 4292118020
0.17776732 0.17299357 -0.1823228 4294088199
0.17624003 0.17280313 -0.18251322 4294945288
0.17471273 0.17261271 -0.18270364 4294947074
0.17318542 0.17242229 -0.18289408 4294683392
0.17165813 0.17223187 -0.1830845 4294486016
0.17013083 0.17204143 -0.18327492 4292775168
0.16860352 0.17185101 -0.18346536 4291790592
0.16707624 0.17166059 -0.18365578 4291003648
0.16554895 0.17147015 -0.18384621 4289687040
0.16402166 0.17127973 -0.18403664 4288371200
0.16249435 0.17108931 -0.18422706 4286200064
0.16146483 0.17061779 -0.18544829 4285017088
0.15993498 0.17042704 -0.18563902 4284426496
0.15840511 0.17023629 -0.18582977 4284360704
0.15687527 0.17004555 -0.18602052 4284032512
0.15534543 0.1698548 -0.18621126 4283968000
0.15381557 0.16966406 -0.18640201 4283902976
0.15228572 0.16947332 -0.18659276 4283706624
0.15027598 0.16956589 -0.18575047 4283772416
0.14874867 0.16937546 -0.18594091 4283642112
0.14722139 0.16918504 -0.18613133 4283116544
0.14522184 0.16927892 -0.18528773 4282590208
0.1436971 0.16908883 -0.18547784 4282064896
0.14170524 0.16918364 -0.18463334 4281867520
0.13971847 0.16927908 -0.1837882 4282130688
0.13819887 0.16908962 -0.18397768 4282393856
0.13621975 0.16918603 -0.18313159 4281803265
0.13470268 0.16899687 -0.18332075 4280686336
0.13273126 0.16909422 -0.18247369 4280620544
0.13121672 0.16890539 -0.18266252 4280620544
0.1297022 0.16871655 -0.18285136 4280685824
0.12774096 0.16881523 -0.18200298 4280489728
0.126229 0.16862671 -0.18219149 4280423936
0.12471702 0.16843818 -0.18238002 4280423936
0.12320504 0.16824967 -0.18256854 4280226304
0.12125662 0.16834989 -0.1817186 4280487680
0.11974718 0.16816169 -0.1819068 4280488192
0.11823776 0.16797349 -0.18209501 4280292096
0.11629955 0.16807501 -0.18124382 4280292096
0.11479267 0.16788712 -0.1814317 4280357120
0.11286212 0.1679896 -0.18057957 4280553472
0.11051549 0.16838336 -0.1786864 4280422912
0.10817911 0.16877837 -0.176792 4280358400
0.10585289 0.16917469 -0.17489627 4280161024
0.10353696 0.16957225 -0.17299932 4280226560
0.10164215 0.16967918 -0.17214273 4280621317
0.099344052 0.17007899 -0.1702435 4280622855
0.097056188 0.17048006 -0.16834307 4279241984
0.095585078 0.17029664 -0.16852649 4279044608
0.093713254 0.17040643 -0.16766703 4279044352
0.092244707 0.17022333 -0.16785012 4278978560
0.090380527 0.17033407 -0.16698964 4279241216
0.088914521 0.17015129 -0.16717242 4282255616
0.087448522 0.1699685 -0.16735519 4283242505
0.08559458 0.17008053 -0.16649352 4286715651
0.084131129 0.16989806 -0.16667598 4286647552
0.082667686 0.1697156 -0.16685845 4286844160
0.081584521 0.16923738 -0.16808634 4286844928
0.080496266 0.16875851 -0.16931495 4287239681
0.079402886 0.16827901 -0.17054412 4287110144
0.078677021 0.16750218 -0.17282031 4287110144
0.077940948 0.16672407 -0.17509785 4286912000
0.076827146 0.16624202 -0.17632955 4287108608
0.076073177 0.16546169 -0.17860927 4287042816
0.075309023 0.16468006 -0.18089031 4287370752
0.074174777 0.16419548 -0.18212456 4287436544
0.072678126 0.16400887 -0.18231116 4287370240
0.071181491 0.16382226 -0.18249777 4287304448
0.069684826 0.16363566 -0.18268438 4287436032
0.06818819 0.16344905 -0.18287098 4287436032
0.066344455 0.16356234 -0.18200803 4287436032
0.064850353 0.16337606 -0.18219431 4287370240
0.063014299 0.1634903 -0.18133037 4287370240
0.061522756 0.16330431 -0.18151635 4287238656
0.059694335 0.16341954 -0.18065141 4287370240
0.057871036 0.16353539 -0.17978591 4287568128
0.056052841 0.16365184 -0.17891975 4287436544
0.054239765 0.16376895 -0.17805296 4287436544
0.052431788 0.16388668 -0.17718552 4287370240
0.050628908 0.16400509 -0.17631741 4287566848
0.048831154 0.16412412 -0.17544872 4287631872
0.047038499 0.16424376 -0.17457937 4287566848
0.045250963 0.16436405 -0.17370941 4287764224
0.043468513 0.16448499 -0.17283872 4287436032
0.042002518 0.1643022 -0.1730215 4287370240
0.040536512 0.16411942 -0.17320429 4287436032
0.038764291 0.16424163 -0.17233241 4287501824
0.037604515 0.16375385 -0.17356986 4287370240
0.036138512 0.16357107 -0.17375264 4287304448
0.034971084 0.16308235 -0.17499112 4287435264
0.033502527 0.16289924 -0.17517422 4287632640
0.032033976 0.16271614 -0.17535733 4287436032
0.030565415 0.16253303 -0.17554043 4287304448
0.029096864 0.16234992 -0.17572352 4287172864
0.027914092 0.16185929 -0.17696384 4287238656
0.02644299 0.16167587 -0.17714725 4287370240
0.024971878 0.16149245 -0.17733067 4287304448
0.023778891 0.16100055 -0.17857228 4287370752
0.022580799 0.16050799 -0.1798145 4287370752
0.021104582 0.16032393 -0.17999856 4287239680
0.019628368 0.16013989 -0.18018262 4287108096
0.018152148 0.15995583 -0.18036668 4286976512
0.01667593 0.15977177 -0.18055072 4286384384
0.015199718 0.15958771 -0.18073478 4286187008
0.013723502 0.15940365 -0.18091884 4284876032
0.012247285 0.15921959 -0.1811029 4282714368
0.010771064 0.15903553 -0.18128696 4282319616
0.0092948517 0.15885147 -0.18147102 4281274624
0.0078186346 0.15866742 -0.18165508 4280032001
0.0063424218 0.15848336 -0.18183914 4279044608
0.0048662047 0.15829931 -0.1820232 4278781696
0.0033899844 0.15811525 -0.18220726 4278781696
0.0019137677 0.15793119 -0.1823913 4278650880
0.00043755458 0.15774713 -0.18257536 4278913280
-0.0010386622 0.15756308 -0.18275942 4278715904
-0.002514879 0.15737902 -0.18294348 4278781696
-0.0039910958 0.15719496 -0.18312754 4278650880
-0.0056943563 0.15732576 -0.18224706 4278585088
-0.0071680159 0.15714203 -0.1824308 4278585344
-0.0086416807 0.15695828 -0.18261455 4278519552
-0.010115342 0.15677455 -0.18279828 4278519552
-0.011589006 0.1565908 -0.18298203 4278585088
-0.013062667 0.15640707 -0.18316576 4278322944
-0.01453633 0.15622333 -0.18334951 4278454528
-0.016009992 0.1560396 -0.18353324 4278650880
-0.017690264 0.15617324 -0.18264988 4278585088
-0.019161375 0.15598983 -0.1828333 4278453760
-0.020632483 0.15580641 -0.18301672 4278453760
-0.022103591 0.15562299 -0.18320014 4278519552
-0.023574699 0.15543956 -0.18338357 4278650880
-0.025239648 0.15557514 -0.18249831 4278650880
-0.026708204 0.15539204 -0.18268141 4278585088
-0.028176757 0.15520895 -0.18286452 4278584832
-0.029831503 0.1553458 -0.18197791 4278650880
-0.031297505 0.155163 -0.18216069 4278650880
-0.032944575 0.15530083 -0.18127322 4278650880
-0.034408022 0.15511836 -0.18145569 4278585088
-0.035871468 0.1549359 -0.18163815 4278585344
-0.037508324 0.15507495 -0.18074937 4278585344
-0.038969215 0.15489282 -0.18093152 4278782464
-0.040598411 0.15503286 -0.18004182 4278782464
-0.042056751 0.15485102 -0.18022364 4278650880
-0.043515086 0.1546692 -0.18040547 4278650880
-0.045134064 0.15481052 -0.17951448 4278979072
-0.046589851 0.15462901 -0.17969599 4278979072
-0.048201177 0.15477127 -0.17880398 4278979072
-0.049654406 0.15459009 -0.17898516 4278913280
-0.051107638 0.15440889 -0.17916636 4278979072
-0.052708738 0.15455243 -0.17827316 4278848256
-0.05415941 0.15437156 -0.17845403 4279307776
