# .PCD v0.7 - Point Cloud Data file format
VERSION 0.7
FIELDS x y z rgb
SIZE 4 4 4 4
TYPE F F F U
COUNT 1 1 1 1
WIDTH 1035
HEIGHT 1
VIEWPOINT 0 0 0 1 0 0 0
POINTS 1035
DATA ascii
-0.11725383 0.1329705 -0.19100006 4284238860
-0.11725383 0.13115492 -0.19100006 4284238860
-0.11725383 0.12933935 -0.19100006 4283976712
-0.11717263 0.12729482 -0.19000001 4284108046
-0.11709144 0.12525551 -0.18900003 4284304655
-0.11701024 0.1232214 -0.18800004 4284304655
-0.11692905 0.12119247 -0.18700005 4284108044
-0.11725383 0.058531851 -0.19100006 4283976206
-0.11717263 0.056588635 -0.19000001 4284107024
-0.11717263 0.054775655 -0.19000001 4283975438
-0.11717263 0.052962668 -0.19000001 4283909895
-0.11717263 0.051149689 -0.19000001 4283778563
-0.11717263 0.049336709 -0.19000001 4283843589
-0.11717263 0.04752373 -0.19000001 4283843337
-0.11717263 0.04571075 -0.19000001 4283777544
-0.11709144 0.043788321 -0.18900003 4283776515
-0.11709144 0.041977935 -0.18900003 4283580165
-0.11709144 0.040167555 -0.18900003 4283580169
-0.11709144 0.038357176 -0.18900003 4283777546
-0.11717263 0.036645852 -0.19000001 4283514374
-0.11717263 0.034832872 -0.19000001 4283383049
-0.11717263 0.033019893 -0.19000001 4283252233
-0.11725383 0.03129819 -0.19100006 4283449096
-0.11725383 0.029482612 -0.19100006 4283382788
-0.11725383 0.027667033 -0.19100006 4283382788
-0.11725383 0.025851456 -0.19100006 4283579397
-0.11725383 0.024035877 -0.19100006 4283513602
-0.11717263 0.02214201 -0.19000001 4283644929
-0.11717263 0.02032903 -0.19000001 4283513344
-0.11709144 0.018442964 -0.18900003 4283643905
-0.11709144 0.016632581 -0.18900003 4283579145
-0.11709144 0.014822203 -0.18900003 4283119618
-0.11701024 0.012946523 -0.18800004 4283250434
-0.11701024 0.01113874 -0.18800004 4283447813
-0.11701024 0.0093309535 -0.18800004 4283710981
-0.11701024 0.0075231702 -0.18800004 4283578884
-0.11701024 0.0057153837 -0.18800004 4283577864
-0.11701024 0.0039076009 -0.18800004 4283380485
-0.11701024 0.0020998146 -0.18800004 4283314692
-0.11701024 0.00029203176 -0.18800004 4283183622
-0.11701024 -0.0015157547 -0.18800004 4282790914
-0.11701024 -0.0033235394 -0.18800004 4282463233
-0.11701024 -0.0051313243 -0.18800004 4282727168
-0.11701024 -0.0069391089 -0.18800004 4282858754
-0.11709144 -0.0087127658 -0.18900003 4282924545
-0.11709144 -0.010523147 -0.18900003 4282727938
-0.11717263 -0.012304598 -0.19000001 4282924547
-0.11717263 -0.014117577 -0.19000001 4282858754
-0.11725383 -0.015906818 -0.19100006 4282989575
-0.11717263 -0.061255049 -0.19000001 4286741815
-0.11709144 -0.06302423 -0.18900003 4287860265
-0.11701024 -0.06478823 -0.18800004 4287925542
-0.11684786 -0.066498034 -0.186 4286938647
-0.11676666 -0.068249039 -0.18500002 4283450891
-0.11668547 -0.069994844 -0.18400003 4282595852
-0.11652309 -0.071678683 -0.18200006 4282594315
-0.11652309 -0.073470883 -0.18200006 4281806084
-0.10231434 -0.08715754 -0.0070000454 4280954911
-0.10231434 -0.088495195 -0.0070000454 4279183655
-0.10239553 -0.089944176 -0.008000032 4279317044
-0.10239553 -0.091284432 -0.008000032 4279185458
-0.10247672 -0.092741206 -0.0090000192 4279380270
-0.10263911 -0.094322301 -0.011000053 4279577388
-0.1027203 -0.095792063 -0.01200004 4279185458
-0.10288268 -0.09739133 -0.014000014 4279118382
-0.10296387 -0.09887407 -0.015000002 4279052589
-0.10328864 -0.10075054 -0.019000011 4280234035
-0.10369461 -0.10277989 -0.024000006 4280628262
-0.10401938 -0.10470051 -0.028000014 4285558320
-0.10475012 -0.10874399 -0.037000015 4288252195
-0.1049937 -0.11058705 -0.040000036 4287922208
-0.10523728 -0.1124457 -0.042999998 4287922208
-0.11668547 -0.13829586 -0.18400003 4282133248
-0.11676666 -0.14024875 -0.18500002 4281936650
-0.11684786 -0.14220682 -0.186 4281805832
-0.11684786 -0.14400941 -0.186 4281542660
-0.11692905 -0.14597528 -0.18700005 4281608453
-0.11701024 -0.14794633 -0.18800004 4281674248
-0.11709144 -0.14992258 -0.18900003 4281608455
-0.11709144 -0.15173297 -0.18900003 4281542662
-0.11717263 -0.15371701 -0.19000001 4281608968
-0.11717263 -0.15552999 -0.19000001 4281608968
-0.11725383 -0.15752183 -0.19100006 4281674246
-0.11725383 -0.15933742 -0.19100006 4281804549
-0.11725383 -0.19201779 -0.19100006 4281936898
-0.11725383 -0.19383337 -0.19100006 4282133254
-0.11725383 -0.19564895 -0.19100006 4282264068
-0.11717263 -0.19722851 -0.19000001 4282133252
-0.11709144 -0.1988029 -0.18900003 4282133252
-0.11709144 -0.20061328 -0.18900003 4281870594
-0.11709144 -0.20242366 -0.18900003 4282133254
-0.11709144 -0.20423405 -0.18900003 4281870596
-0.11709144 -0.20604442 -0.18900003 4282067975
-0.11709144 -0.20785482 -0.18900003 4282002182
-0.11709144 -0.20966519 -0.18900003 4282002693
-0.11709144 -0.21147558 -0.18900003 4281870594
-0.11709144 -0.21328597 -0.18900003 4281936902
-0.11717263 -0.21535832 -0.19000001 4281936648
-0.11717263 -0.2171713 -0.19000001 4281936648
-0.11717263 -0.21898428 -0.19000001 4281936900
-0.11717263 -0.22079726 -0.19000001 4282001666
-0.11709144 -0.22233787 -0.18900003 4282001666
-0.11701024 -0.2238733 -0.18800004 4281739521
-0.11692905 -0.22540353 -0.18700005 4281739521
-0.11676666 -0.22664839 -0.18500002 4281804035
-0.11660428 -0.22788288 -0.18300004 4282132484
-0.11644189 -0.22910696 -0.18100001 4282264066
-0.11627951 -0.23032068 -0.17900003 4282132480
-0.11619832 -0.23181455 -0.17800005 4282132480
-0.11611713 -0.23330322 -0.17700006 4280883712
-0.11619832 -0.23537818 -0.17800005 4280424192
-0.11619832 -0.23715998 -0.17800005 4281016064
-0.11627951 -0.23924272 -0.17900003 4281935873
-0.11627951 -0.24102713 -0.17900003 4282133252
-0.11644189 -0.24342379 -0.18100001 4282133504
-0.11652309 -0.24552214 -0.18200006 4282133504
-0.11668547 -0.24793698 -0.18400003 4281936898
-0.11684786 -0.25036222 -0.186 4281805312
-0.11684786 -0.25216481 -0.186 4282002945
-0.11684786 -0.2539674 -0.186 4282132480
-0.11684786 -0.25577 -0.186 4282001928
-0.11684786 -0.25757259 -0.186 4281477382
-0.11684786 -0.25937515 -0.186 4281608968
-0.11684786 -0.26117775 -0.186 4282001414
-0.11668547 -0.26231614 -0.18400003 4281935873
-0.11660428 -0.26377884 -0.18300004 4281739521
-0.11652309 -0.26523635 -0.18200006 4281870592
-0.11644189 -0.26668864 -0.18100001 4282002178
-0.11627951 -0.26779327 -0.17900003 4281739520
-0.11627951 -0.26957768 -0.17900003 4281804803
-0.11627951 -0.27136207 -0.17900003 4282066176
-0.11611713 -0.27244592 -0.17700006 4282001664
-0.11603593 -0.27387223 -0.17600001 4281870082
-0.11603593 -0.27564886 -0.17600001 4281935875
-0.11611713 -0.27778357 -0.17700006 4281804035
-0.11619832 -0.27992344 -0.17800005 4282000644
-0.11627951 -0.28206852 -0.17900003 4282066178
-0.11627951 -0.28385293 -0.17900003 4282066178
-0.11644189 -0.28637427 -0.18100001 4281671681
-0.11652309 -0.28853494 -0.18200006 4281605125
-0.11660428 -0.29070079 -0.18300004 4280884228
-0.11668547 -0.29287186 -0.18400003 4280556548
-0.11676666 -0.29504812 -0.18500002 4280556548
-0.11684786 -0.29722956 -0.186 4280490501
-0.11684786 -0.29903212 -0.186 4280555776
-0.11881803 0.29134539 -0.18800004 4284245274
-0.11881803 0.28953761 -0.18800004 4285029400
-0.11881803 0.28772983 -0.18800004 4285159701
-0.11890182 0.28637955 -0.18900003 4285355795
-0.11890182 0.28456914 -0.18900003 4285487381
-0.11890182 0.28275877 -0.18900003 4285421842
-0.11890182 0.2809484 -0.18900003 4285291019
-0.11898561 0.27958512 -0.19000001 4284897294
-0.11898561 0.27777213 -0.19000001 4285159183
-0.1190694 0.2764011 -0.19100006 4285290769
-0.1190694 0.27458552 -0.19100006 4285421842
-0.1190694 0.27276993 -0.19100006 4285356562
-0.1190694 0.27095437 -0.19100006 4285356301
-0.1190694 0.26913878 -0.19100006 4285356301
-0.1190694 0.18562223 -0.19100006 4284371470
-0.1190694 0.18380666 -0.19100006 4284503056
-0.1190694 0.18199107 -0.19100006 4284503054
-0.1190694 0.1801755 -0.19100006 4284632585
-0.1190694 0.17835993 -0.19100006 4284371468
-0.1190694 0.17654435 -0.19100006 4284371218
-0.1190694 0.17472877 -0.19100006 4284502804
-0.1190694 0.17291319 -0.19100006 4284501780
-0.1190694 0.17109762 -0.19100006 4284633872
-0.1190694 0.16928203 -0.19100006 4284763912
-0.1190694 0.16746646 -0.19100006 4284895750
-0.11898561 0.16536739 -0.19000001 4284895750
-0.11898561 0.16355442 -0.19000001 4284632587
-0.11898561 0.16174144 -0.19000001 4284698898
-0.11890182 0.15965277 -0.18900003 4284502032
-0.11890182 0.1578424 -0.18900003 4284436239
-0.11890182 0.15603201 -0.18900003 4284435978
-0.11890182 0.15422162 -0.18900003 4284436241
-0.11890182 0.15241125 -0.18900003 4284305425
-0.11890182 0.15060087 -0.18900003 4284239630
-0.11890182 0.14879048 -0.18900003 4284239630
-0.11898561 0.1472376 -0.19000001 4284435726
-0.1190694 0.14567953 -0.19100006 4284239630
-0.1190694 0.14386396 -0.19100006 4284239632
-0.1190694 0.14204839 -0.19100006 4284239632
-0.1190694 0.1402328 -0.19100006 4284239632
-0.1190694 0.13660166 -0.19100006 4284238860
-0.1190694 0.13478608 -0.19100006 4284370700
-0.1190694 0.1329705 -0.19100006 4284238862
-0.11898561 0.13092078 -0.19000001 4284238862
-0.11898561 0.1291078 -0.19000001 4284042251
-0.11890182 0.1270659 -0.18900003 4284238862
-0.11890182 0.12525551 -0.18900003 4284304655
-0.11881803 0.1232214 -0.18800004 4284370448
-0.11865044 0.12097132 -0.186 4284042765
-0.11839908 0.11851312 -0.18300004 4283911431
-0.11831529 0.11650237 -0.18200006 4284043019
-0.1182315 0.11449681 -0.18100001 4284107274
-0.11806392 0.11228572 -0.17900003 4284239114
-0.11789634 0.11008501 -0.17700006 4284173321
-0.11781254 0.10810024 -0.17600001 4284173837
-0.11898561 0.091035239 -0.19000001 4283976206
-0.1190694 0.089396656 -0.19100006 4284041999
-0.1190694 0.065794155 -0.19100006 4284632589
-0.1190694 0.063978575 -0.19100006 4284501003
-0.1190694 0.062163003 -0.19100006 4284434704
-0.1190694 0.060347423 -0.19100006 4284238349
-0.11898561 0.058401607 -0.19000001 4284238347
-0.11898561 0.056588635 -0.19000001 4284369417
-0.11898561 0.054775655 -0.19000001 4284369417
-0.11890182 0.052840233 -0.18900003 4284303622
-0.11898561 0.051149689 -0.19000001 4283909634
-0.11890182 0.049219467 -0.18900003 4283974407
-0.11890182 0.04740908 -0.18900003 4283973894
-0.11890182 0.045598701 -0.18900003 4283908101
-0.11890182 0.043788321 -0.18900003 4284038403
-0.11890182 0.041977935 -0.18900003 4283972356
-0.11890182 0.040167555 -0.18900003 4284038917
-0.11890182 0.038357176 -0.18900003 4284366085
-0.11890182 0.036546789 -0.18900003 4284168706
-0.11890182 0.03473641 -0.18900003 4284102659
-0.11890182 0.03292603 -0.18900003 4283971843
-0.11890182 0.031115642 -0.18900003 4283773696
-0.11898561 0.029393932 -0.19000001 4283840257
-0.11898561 0.027580952 -0.19000001 4283774464
-0.11898561 0.025767976 -0.19000001 4284036355
-0.11890182 0.02387411 -0.18900003 4284035073
-0.11890182 0.022063727 -0.18900003 4284232962
-0.11890182 0.020253347 -0.18900003 4284167169
-0.11881803 0.018369878 -0.18800004 4283902976
-0.11873424 0.016491601 -0.18700005 4283836928
-0.11873424 0.014686416 -0.18700005 4283837184
-0.11865044 0.012815929 -0.186 4283706624
-0.11865044 0.011013339 -0.186 4284101378
-0.11865044 0.0092107495 -0.186 4284037888
-0.11865044 0.0074081593 -0.186 4283641600
-0.11865044 0.0056055696 -0.186 4283640325
-0.11865044 0.0038029801 -0.186 4283640323
-0.11865044 0.0020003866 -0.186 4283508737
-0.11865044 0.00019779682 -0.186 4283312641
-0.11865044 -0.001604791 -0.186 4282526725
-0.11873424 -0.0033654582 -0.18700005 4281410048
-0.11873424 -0.0051706466 -0.18700005 4281805568
-0.11881803 -0.0069391089 -0.18800004 4282200324
-0.11890182 -0.0087127658 -0.18900003 4282858504
-0.11890182 -0.010523147 -0.18900003 4282793479
-0.11898561 -0.012304598 -0.19000001 4282858756
-0.1190694 -0.014091239 -0.19100006 4282924549
-0.1190694 -0.055849511 -0.19100006 4282990860
-0.1190694 -0.057665091 -0.19100006 4282990860
-0.1190694 -0.059480667 -0.19100006 4283188491
-0.11890182 -0.061213851 -0.18900003 4288321349
-0.11839908 -0.068145864 -0.18300004 4282925326
-0.11831529 -0.069886483 -0.18200006 4282398219
-0.11814771 -0.071565121 -0.18000002 4282265863
-0.11806392 -0.073292747 -0.17900003 4281806082
-0.10348441 -0.086945273 -0.0050000115 4279577399
-0.10348441 -0.088277735 -0.0050000115 4279380786
-0.1035682 -0.089721523 -0.0059999987 4279183407
-0.10373578 -0.091284432 -0.008000032 4279183407
-0.10373578 -0.092624687 -0.008000032 4279314477
-0.10390336 -0.094203174 -0.010000006 4279118636
-0.10398715 -0.09567035 -0.011000053 4278857522
-0.10415473 -0.097267017 -0.013000027 4278987057
-0.10432231 -0.09887407 -0.015000002 4278921264
-0.10465747 -0.10075054 -0.019000011 4279577138
-0.10507642 -0.10277989 -0.024000006 4279708206
-0.10541158 -0.10470051 -0.028000014 4280035871
-0.10574675 -0.10664191 -0.03200002 4281943868
-0.10608191 -0.1086041 -0.036000028 4286150707
-0.10633328 -0.11044456 -0.039000049 4288055079
-0.10658465 -0.1123006 -0.042000011 4287726114
-0.10683602 -0.11417224 -0.045000032 4287595048
-0.11865044 -0.14220682 -0.186 4281936902
-0.11865044 -0.14400941 -0.186 4281543427
-0.11873424 -0.14597528 -0.18700005 4281609220
-0.11881803 -0.14794633 -0.18800004 4281608455
-0.11890182 -0.14992258 -0.18900003 4281739269
-0.11890182 -0.15173297 -0.18900003 4281609220
-0.11898561 -0.15371701 -0.19000001 4281543173
-0.1190694 -0.15570626 -0.19100006 4281543173
-0.1190694 -0.15752183 -0.19100006 4281805064
-0.1190694 -0.19564895 -0.19100006 4282133254
-0.1190694 -0.19746453 -0.19100006 4282133252
-0.11898561 -0.19904149 -0.19000001 4282002180
-0.11898561 -0.20085447 -0.19000001 4281805314
-0.11898561 -0.20266744 -0.19000001 4282199047
-0.11898561 -0.20448042 -0.19000001 4282002180
-0.11898561 -0.2062934 -0.19000001 4282067975
-0.11898561 -0.2081064 -0.19000001 4282002182
-0.11898561 -0.20991938 -0.19000001 4282068488
-0.11898561 -0.21173236 -0.19000001 4282002180
-0.11898561 -0.21354534 -0.19000001 4281936648
-0.11898561 -0.21535832 -0.19000001 4281936648
-0.11898561 -0.2171713 -0.19000001 4281936648
-0.11898561 -0.21898428 -0.19000001 4281936900
-0.11898561 -0.22079726 -0.19000001 4282001668
-0.11890182 -0.22233787 -0.18900003 4282132484
-0.11881803 -0.2238733 -0.18800004 4281935873
-0.11873424 -0.22540353 -0.18700005 4281935873
-0.11865044 -0.22692855 -0.186 4281804289
-0.11848287 -0.22816564 -0.18400003 4282132484
-0.11831529 -0.22939233 -0.18200006 4282264066
-0.11814771 -0.23060863 -0.18000002 4282133252
-0.11806392 -0.23210509 -0.17900003 4282001666
-0.11798013 -0.23359635 -0.17800005 4280817920
-0.11798013 -0.23537818 -0.17800005 4280555265
-0.11798013 -0.23715998 -0.17800005 4281212675
-0.11806392 -0.23924272 -0.17900003 4282131969
-0.11806392 -0.24102713 -0.17900003 4282329348
-0.1182315 -0.24342379 -0.18100001 4282133504
-0.11831529 -0.24552214 -0.18200006 4282001666
-0.11848287 -0.24793698 -0.18400003 4281936900
-0.11865044 -0.25036222 -0.186 4281936900
-0.11865044 -0.25216481 -0.186 4281937152
-0.11865044 -0.2539674 -0.186 4282001664
-0.11865044 -0.25577 -0.186 4281805062
-0.11865044 -0.25757259 -0.186 4281542660
-0.11865044 -0.25937515 -0.186 4281608453
-0.11865044 -0.26117775 -0.186 4282001668
-0.11856665 -0.26264825 -0.18500002 4281935873
-0.11839908 -0.26377884 -0.18300004 4281739521
-0.11831529 -0.26523635 -0.18200006 4281739520
-0.1182315 -0.26668864 -0.18100001 4281936898
-0.11806392 -0.26779327 -0.17900003 4281739520
-0.11806392 -0.26957768 -0.17900003 4281935875
-0.11798013 -0.27101439 -0.17800005 4282197762
-0.11781254 -0.27209562 -0.17600001 4282001920
-0.11781254 -0.27387223 -0.17600001 4281935873
-0.11781254 -0.27564886 -0.17600001 4281870080
-0.11781254 -0.27742547 -0.17600001 4281803267
-0.11789634 -0.27956277 -0.17700006 4281474048
-0.11798013 -0.28170526 -0.17800005 4281343232
-0.11806392 -0.28385293 -0.17900003 4281343232
-0.11814771 -0.2860058 -0.18000002 4280686851
-0.11831529 -0.28853494 -0.18200006 4280817415
-0.11831529 -0.29032713 -0.18200006 4280359169
-0.11848287 -0.29287186 -0.18400003 4280556546
-0.11848287 -0.29466924 -0.18400003 4280556546
-0.11865044 -0.29722956 -0.186 4280752644
-0.11865044 -0.29903212 -0.186 4280950273
-0.12045304 0.29401997 -0.186 4284180501
-0.12045304 0.29221737 -0.186 4291544411
-0.12053943 0.29088011 -0.18700005 4291018067
-0.12053943 0.28907493 -0.18700005 4284701185
-0.12062582 0.28772983 -0.18800004 4285160205
-0.1207122 0.28637955 -0.18900003 4285618449
-0.1207122 0.28456914 -0.18900003 4285684242
-0.1207122 0.28275877 -0.18900003 4285617935
-0.1207122 0.2809484 -0.18900003 4285356812
-0.12079859 0.27958512 -0.19000001 4285028619
-0.12079859 0.27777213 -0.19000001 4285290769
-0.12079859 0.27595916 -0.19000001 4285159183
-0.12088498 0.27458552 -0.19100006 4285356308
-0.12088498 0.27276993 -0.19100006 4285422103
-0.12088498 0.27095437 -0.19100006 4285486865
-0.12088498 0.26913878 -0.19100006 4285486865
-0.12088498 0.1874378 -0.19100006 4284502286
-0.12079859 0.18531017 -0.19000001 4284502286
-0.12079859 0.18349719 -0.19000001 4284633872
-0.1207122 0.18137735 -0.18900003 4284699663
-0.1207122 0.17956698 -0.18900003 4284436230
-0.12079859 0.17805825 -0.19000001 4284502286
-0.12079859 0.17624527 -0.19000001 4284371218
-0.12079859 0.17443229 -0.19000001 4284371218
-0.12088498 0.17291319 -0.19100006 4284567312
-0.12088498 0.17109762 -0.19100006 4284699150
-0.12079859 0.16899335 -0.19000001 4284895498
-0.12079859 0.16718037 -0.19000001 4284961543
-0.12079859 0.16536739 -0.19000001 4284895750
-0.12079859 0.16355442 -0.19000001 4284698128
-0.1207122 0.16146316 -0.18900003 4284698898
-0.1207122 0.15965277 -0.18900003 4284502032
-0.1207122 0.1578424 -0.18900003 4284436491
-0.1207122 0.15603201 -0.18900003 4284304905
-0.1207122 0.15422162 -0.18900003 4284305171
-0.1207122 0.15241125 -0.18900003 4284239378
-0.1207122 0.15060087 -0.18900003 4284304655
-0.1207122 0.14879048 -0.18900003 4284370448
-0.12079859 0.1472376 -0.19000001 4284369933
-0.12079859 0.14542462 -0.19000001 4283977226
-0.12079859 0.14361164 -0.19000001 4284042765
-0.12079859 0.14179866 -0.19000001 4284305425
-0.12079859 0.13998568 -0.19000001 4284239632
-0.12079859 0.1381727 -0.19000001 4284370446
-0.12079859 0.13635972 -0.19000001 4284239882
-0.12079859 0.13454674 -0.19000001 4284174091
-0.12079859 0.13273376 -0.19000001 4284304653
-0.1207122 0.13068666 -0.18900003 4284304653
-0.1207122 0.12887628 -0.18900003 4284173067
-0.1207122 0.1270659 -0.18900003 4284303888
-0.12062582 0.12502918 -0.18800004 4284238862
-0.12045304 0.12277392 -0.186 4283976972
-0.12036665 0.12075019 -0.18500002 4284108558
-0.12019388 0.11851312 -0.18300004 4283911431
-0.1200211 0.11628643 -0.18100001 4284042765
-0.11984833 0.11407013 -0.17900003 4283976460
-0.11967555 0.11186422 -0.17700006 4284042505
-0.11958916 0.10987684 -0.17600001 4284174091
-0.11958916 0.10810024 -0.17600001 4284304907
-0.11958916 0.10632361 -0.17600001 4284108298
-0.11958916 0.10454699 -0.17600001 4284108548
-0.11958916 0.10277039 -0.17600001 4284108548
-0.1207122 0.090858258 -0.18900003 4284303372
-0.12079859 0.08922226 -0.19000001 4284171786
-0.12088498 0.087581076 -0.19100006 4284434956
-0.12088498 0.067609735 -0.19100006 4285549326
-0.12079859 0.065653525 -0.19000001 4285287174
-0.12079859 0.063840546 -0.19000001 4285286922
-0.1207122 0.061892144 -0.18900003 4285155336
-0.1207122 0.060081765 -0.18900003 4285878291
-0.1207122 0.058271378 -0.18900003 4286339344
-0.1207122 0.056460999 -0.18900003 4285615117
-0.1207122 0.05465062 -0.18900003 4285286152
-0.1207122 0.052840233 -0.18900003 4285221129
-0.1207122 0.051029846 -0.18900003 4285814033
-0.1207122 0.049219467 -0.18900003 4284695300
-0.1207122 0.04740908 -0.18900003 4285814031
-0.1207122 0.045598701 -0.18900003 4284827136
-0.12062582 0.043678865 -0.18800004 4284629505
-0.12053943 0.04176423 -0.18700005 4284761863
-0.12053943 0.039959043 -0.18700005 4284827656
-0.12053943 0.038153857 -0.18700005 4284693505
-0.12053943 0.036348671 -0.18700005 4284496128
-0.12053943 0.034543484 -0.18700005 4284561152
-0.12062582 0.032832161 -0.18800004 4284298496
-0.12062582 0.031024372 -0.18800004 4284035072
-0.1207122 0.029305262 -0.18900003 4283969792
-0.1207122 0.027494879 -0.18900003 4283969792
-0.1207122 0.025684496 -0.18900003 4284100352
-0.1207122 0.02387411 -0.18900003 4284164864
-0.12062582 0.021985447 -0.18800004 4284428548
-0.12053943 0.020101974 -0.18700005 4284230402
-0.12045304 0.018223697 -0.186 4283835648
-0.12045304 0.016421108 -0.186 4284098816
-0.12036665 0.014550625 -0.18500002 4283901440
-0.12036665 0.012750632 -0.18500002 4283902976
-0.12036665 0.010950639 -0.18500002 4284363525
-0.12036665 0.0091506457 -0.18500002 4284102912
-0.12036665 0.007350652 -0.18500002 4283378176
-0.12045304 0.0056055696 -0.186 4283508227
-0.12045304 0.0038029801 -0.186 4283508225
-0.12036665 0.0019506763 -0.18500002 4283442432
-0.12045304 0.00019779682 -0.186 4283180544
-0.12045304 -0.001604791 -0.186 4281868032
-0.12045304 -0.0034073808 -0.186 4281278208
-0.12045304 -0.0052099708 -0.186 4281476352
-0.12045304 -0.0070125605 -0.186 4281673730
-0.12062582 -0.0087468931 -0.18800004 4282331143
-0.1207122 -0.010523147 -0.18900003 4282661125
-0.12079859 -0.012304598 -0.19000001 4282792196
-0.12088498 -0.014091239 -0.19100006 4282923782
-0.12088498 -0.057665091 -0.19100006 4282727434
-0.12079859 -0.059442069 -0.19000001 4288189509
-0.1207122 -0.061213851 -0.18900003 4288451368
-0.11984833 -0.071508341 -0.17900003 4282200322
-0.1046441 -0.086733013 -0.0030000373 4279182380
-0.10473049 -0.088169008 -0.0040000244 4279248686
-0.10473049 -0.089498878 -0.0040000244 4279378737
-0.10490326 -0.091056585 -0.0059999987 4279380270
-0.10498965 -0.092508167 -0.0070000454 4279511856
-0.10516242 -0.094084054 -0.0090000192 4279053356
-0.1053352 -0.09567035 -0.011000053 4278594866
-0.10550797 -0.097267017 -0.013000027 4278790963
-0.10568075 -0.09887407 -0.015000002 4278725170
-0.1060263 -0.10075054 -0.019000011 4279314225
-0.10637185 -0.10264778 -0.023000019 4279313966
-0.1067174 -0.10456581 -0.027000027 4279773482
-0.10706295 -0.10650461 -0.031000035 4280497205
-0.1074085 -0.1084642 -0.035000041 4285428810
-0.10758127 -0.11015957 -0.037000015 4288319030
-0.10784044 -0.11201043 -0.040000036 4287595294
-0.1080996 -0.11387686 -0.042999998 4287595294
-0.10827238 -0.1156086 -0.045000032 4282398208
-0.12045304 -0.14400941 -0.186 4281608966
-0.12053943 -0.14597528 -0.18700005 4281608966
-0.12062582 -0.14794633 -0.18800004 4281739271
-0.1207122 -0.14992258 -0.18900003 4281739523
-0.12079859 -0.15190403 -0.19000001 4281674498
-0.12079859 -0.15371701 -0.19000001 4281543173
-0.12088498 -0.15570626 -0.19100006 4281543173
-0.12088498 -0.15752183 -0.19100006 4281674248
-0.12088498 -0.1992801 -0.19100006 4282199043
-0.12088498 -0.20109569 -0.19100006 4281936902
-0.12088498 -0.20291126 -0.19100006 4282001928
-0.12088498 -0.20472683 -0.19100006 4282067973
-0.12088498 -0.2065424 -0.19100006 4282067723
-0.12079859 -0.2081064 -0.19000001 4282001930
-0.12079859 -0.20991938 -0.19000001 4282133514
-0.12079859 -0.21173236 -0.19000001 4282133254
-0.12079859 -0.21354534 -0.19000001 4282001928
-0.12079859 -0.21535832 -0.19000001 4282002695
-0.12079859 -0.2171713 -0.19000001 4281936902
-0.12079859 -0.21898428 -0.19000001 4281936900
-0.12079859 -0.22079726 -0.19000001 4282001416
-0.1207122 -0.22233787 -0.18900003 4282133000
-0.1207122 -0.22414826 -0.18900003 4281935873
-0.12053943 -0.22540353 -0.18700005 4282001666
-0.12045304 -0.22692855 -0.186 4282001664
-0.12028027 -0.22816564 -0.18400003 4282133252
-0.12010749 -0.22939233 -0.18200006 4282329859
-0.1200211 -0.23089658 -0.18100001 4282067721
-0.11984833 -0.23210509 -0.17900003 4281870342
-0.11976194 -0.23359635 -0.17800005 4280752896
-0.11984833 -0.2356739 -0.17900003 4280489472
-0.11984833 -0.23745832 -0.17900003 4280950273
-0.11984833 -0.23924272 -0.17900003 4282066689
-0.11984833 -0.24102713 -0.17900003 4282132482
-0.1200211 -0.24342379 -0.18100001 4282001666
-0.12010749 -0.24552214 -0.18200006 4281870596
-0.12028027 -0.24793698 -0.18400003 4281806084
-0.12045304 -0.25036222 -0.186 4281674498
-0.12045304 -0.25216481 -0.186 4281609986
-0.12045304 -0.2539674 -0.186 4282002178
-0.12045304 -0.25577 -0.186 4281804803
-0.12045304 -0.25757259 -0.186 4281608705
-0.12045304 -0.25937515 -0.186 4281674498
-0.12036665 -0.26084825 -0.18500002 4282132480
-0.12028027 -0.26231614 -0.18400003 4281935875
-0.12019388 -0.26377884 -0.18300004 4281739523
-0.12010749 -0.26523635 -0.18200006 4281806084
-0.1200211 -0.26668864 -0.18100001 4281674498
-0.11984833 -0.26779327 -0.17900003 4281936898
-0.11984833 -0.26957768 -0.17900003 4282001666
-0.11976194 -0.27101439 -0.17800005 4282197764
-0.11958916 -0.27209562 -0.17600001 4281804289
-0.11958916 -0.27387223 -0.17600001 4281343746
-0.11958916 -0.27564886 -0.17600001 4281277953
-0.11958916 -0.27742547 -0.17600001 4280817152
-0.11958916 -0.27920207 -0.17600001 4281079042
-0.11976194 -0.28170526 -0.17800005 4281211648
-0.11984833 -0.28385293 -0.17900003 4281343234
-0.11993471 -0.2860058 -0.18000002 4281015298
-0.1200211 -0.28816387 -0.18100001 4280950021
-0.12010749 -0.29032713 -0.18200006 4280951554
-0.12019388 -0.29249561 -0.18300004 4281280001
-0.12028027 -0.29466924 -0.18400003 4280950786
-0.12036665 -0.29684809 -0.18500002 4281146884
-0.12045304 -0.29903212 -0.186 4281147904
-0.12225562 0.29221737 -0.186 4286022176
-0.12225562 0.29041478 -0.186 4283851008
-0.12234461 0.28907493 -0.18700005 4284179216
-0.1224336 0.28772983 -0.18800004 4285225744
-0.1224336 0.28592205 -0.18800004 4285421840
-0.12252259 0.28456914 -0.18900003 4285553426
-0.12252259 0.28275877 -0.18900003 4285159435
-0.12252259 0.2809484 -0.18900003 4285160201
-0.12261157 0.27958512 -0.19000001 4285028619
-0.12261157 0.27777213 -0.19000001 4285159181
-0.12270056 0.2764011 -0.19100006 4285159181
-0.12270056 0.27458552 -0.19100006 4285356562
-0.12270056 0.27276993 -0.19100006 4285291289
-0.12270056 0.27095437 -0.19100006 4285355795
-0.12270056 0.18925339 -0.19100006 4284502032
-0.12261157 0.18712315 -0.19000001 4284502284
-0.12252259 0.18499812 -0.18900003 4284305677
-0.12252259 0.18318774 -0.18900003 4284503056
-0.12252259 0.18137735 -0.18900003 4284699665
-0.12252259 0.17956698 -0.18900003 4284502021
-0.12252259 0.17775659 -0.18900003 4284567562
-0.12252259 0.17594621 -0.18900003 4284567566
-0.12261157 0.17443229 -0.19000001 4284501773
-0.12261157 0.17261931 -0.19000001 4284567562
-0.12261157 0.17080633 -0.19000001 4284699148
-0.12261157 0.16899335 -0.19000001 4284699400
-0.12261157 0.16718037 -0.19000001 4284830736
-0.12261157 0.16536739 -0.19000001 4284764943
-0.12261157 0.16355442 -0.19000001 4284567312
-0.12252259 0.16146316 -0.18900003 4284698382
-0.12252259 0.15965277 -0.18900003 4284436239
-0.12252259 0.1578424 -0.18900003 4284305675
-0.12252259 0.15603201 -0.18900003 4284239882
-0.12252259 0.15422162 -0.18900003 4284305171
-0.12252259 0.15241125 -0.18900003 4284173585
-0.12252259 0.15060087 -0.18900003 4284370446
-0.12252259 0.14879048 -0.18900003 4284238860
-0.12252259 0.14698011 -0.18900003 4284435978
-0.12252259 0.14516972 -0.18900003 4283977735
-0.12252259 0.14335933 -0.18900003 4284043019
-0.12252259 0.14154895 -0.18900003 4284502032
-0.12261157 0.13998568 -0.19000001 4284304653
-0.12261157 0.1381727 -0.19000001 4284239884
-0.12261157 0.13635972 -0.19000001 4284109325
-0.12261157 0.13454674 -0.19000001 4284042765
-0.12252259 0.13249704 -0.18900003 4284108558
-0.12252259 0.13068666 -0.18900003 4284042765
-0.12252259 0.12887628 -0.18900003 4284108044
-0.1224336 0.12683697 -0.18800004 4284304142
-0.12225562 0.12457651 -0.186 4284304653
-0.12216664 0.12255017 -0.18500002 4284174091
-0.12198868 0.12030791 -0.18300004 4284174091
-0.1218107 0.11807603 -0.18100001 4284108298
-0.12163273 0.11585453 -0.17900003 4284042767
-0.12154375 0.11385678 -0.17800005 4283845388
-0.12136578 0.11165346 -0.17600001 4284042251
-0.12136578 0.10987684 -0.17600001 4284173837
-0.12118781 0.10768913 -0.17400004 4284304907
-0.12127679 0.10612066 -0.17500003 4284174091
-0.12127679 0.10434663 -0.17500003 4284240134
-0.12136578 0.10277039 -0.17600001 4284108548
-0.12154375 0.1013841 -0.17800005 4284173321
-0.12172171 0.099987432 -0.18000002 4284435726
-0.12189969 0.098580375 -0.18200006 4284436493
-0.12225562 0.095735073 -0.186 4284501773
-0.12234461 0.094114661 -0.18700005 4284238347
-0.1224336 0.092489056 -0.18800004 4284434445
-0.12252259 0.090858258 -0.18900003 4284630540
-0.12252259 0.089047872 -0.18900003 4284630540
-0.12261157 0.08740928 -0.19000001 4284762378
-0.12270056 0.069425307 -0.19100006 4286073360
-0.12261157 0.067466505 -0.19000001 4286205709
-0.12252259 0.06551291 -0.18900003 4285943811
-0.12252259 0.063702524 -0.18900003 4286930969
-0.12252259 0.061892144 -0.18900003 4285812488
-0.12252259 0.060081765 -0.18900003 4286403342
-0.12252259 0.058271378 -0.18900003 4286733579
-0.1224336 0.056333363 -0.18800004 4285943561
-0.1224336 0.054525584 -0.18800004 4285811975
-0.12252259 0.052840233 -0.18900003 4285549578
-0.12252259 0.051029846 -0.18900003 4285549830
-0.12252259 0.049219467 -0.18900003 4285352197
-0.12252259 0.04740908 -0.18900003 4285484803
-0.1224336 0.045486651 -0.18800004 4285024256
-0.12225562 0.043459959 -0.186 4284958464
-0.12225562 0.041657373 -0.186 4284762115
-0.12225562 0.03985478 -0.186 4284761861
-0.12225562 0.038052194 -0.186 4285023234
-0.12225562 0.0362496 -0.186 4284825856
-0.12225562 0.034447014 -0.186 4284627200
-0.12225562 0.032644421 -0.186 4284758016
-0.12234461 0.030933103 -0.18700005 4284889347
-0.12234461 0.029127916 -0.18700005 4284757250
-0.1224336 0.027408803 -0.18800004 4284757250
-0.1224336 0.02560102 -0.18800004 4284691457
-0.12234461 0.02371235 -0.18700005 4284689408
-0.12225562 0.021828877 -0.186 4284426240
-0.12225562 0.020026287 -0.186 4284162816
-0.12225562 0.018223697 -0.186 4284097024
-0.12216664 0.016350614 -0.18500002 4284557570
-0.12207766 0.014482732 -0.18400003 4284492032
-0.12198868 0.012620038 -0.18300004 4284492544
-0.12207766 0.010887942 -0.18400003 4284755714
-0.12198868 0.0090304455 -0.18300004 4284166144
-0.12198868 0.0072356449 -0.18300004 4283836929
-0.12207766 0.0054957555 -0.18400003 4283704321
-0.12207766 0.003698359 -0.18400003 4283440640
-0.12207766 0.001900966 -0.18400003 4283572224
-0.12207766 0.00010356933 -0.18400003 4283310848
-0.12216664 -0.0016493083 -0.18500002 4281867520
-0.12225562 -0.0034073808 -0.186 4281212160
-0.12225562 -0.0052099708 -0.186 4281147136
-0.12225562 -0.0070125605 -0.186 4281278720
-0.1224336 -0.0087468931 -0.18800004 4281476099
-0.12252259 -0.010523147 -0.18900003 4281673217
-0.12261157 -0.012304598 -0.19000001 4281739520
-0.12270056 -0.014091239 -0.19100006 4282858504
-0.12270056 -0.052218359 -0.19100006 4283319305
-0.12270056 -0.055849511 -0.19100006 4286674485
-0.10561542 -0.082357854 0.00099997094 4279247671
-0.10579339 -0.083876602 -0.0010000033 4279116337
-0.10588238 -0.085302219 -0.0020000502 4279182130
-0.10588238 -0.086626887 -0.0020000502 4279182378
-0.10588238 -0.087951556 -0.0020000502 4279051307
-0.10597137 -0.089387551 -0.0030000373 4279182641
-0.10606035 -0.090828739 -0.0040000244 4279380786
-0.10623831 -0.09239164 -0.0059999987 4279380786
-0.10641629 -0.093964942 -0.008000032 4278922286
-0.10659426 -0.095548622 -0.010000006 4278594866
-0.10677223 -0.097142704 -0.01200004 4278790965
-0.10703918 -0.09887407 -0.015000002 4278725172
-0.10739512 -0.10075054 -0.019000011 4279117362
-0.10775106 -0.10264778 -0.023000019 4279248173
-0.10810701 -0.10456581 -0.027000027 4279445804
-0.10846294 -0.10650461 -0.031000035 4279577390
-0.1087299 -0.1083243 -0.034000054 4282470214
-0.10890787 -0.11001708 -0.036000028 4283717411
-0.10917483 -0.11186533 -0.039000049 4287925278
-0.1093528 -0.11358149 -0.041000023 4287596313
-0.10953076 -0.11530802 -0.042999998 4285950208
-0.12234461 -0.14417009 -0.18700005 4281806345
-0.12234461 -0.14597528 -0.18700005 4281806345
-0.1224336 -0.14794633 -0.18800004 4281739017
-0.12252259 -0.14992258 -0.18900003 4281804803
-0.12261157 -0.15190403 -0.19000001 4281674496
-0.12261157 -0.15371701 -0.19000001 4281543427
-0.12270056 -0.15570626 -0.19100006 4281543427
-0.12270056 -0.15752183 -0.19100006 4281608966
-0.12270056 -0.20472683 -0.19100006 4282264836
-0.12270056 -0.2065424 -0.19100006 4282067723
-0.12270056 -0.20835799 -0.19100006 4282067723
-0.12270056 -0.21017358 -0.19100006 4282264586
-0.12261157 -0.21173236 -0.19000001 4282199047
-0.12261157 -0.21354534 -0.19000001 4282067721
-0.12261157 -0.21535832 -0.19000001 4282133768
-0.12261157 -0.2171713 -0.19000001 4282002182
-0.12261157 -0.21898428 -0.19000001 4282002180
-0.12261157 -0.22079726 -0.19000001 4281870596
-0.12252259 -0.22233787 -0.18900003 4282002695
-0.1224336 -0.2238733 -0.18800004 4281870592
-0.12225562 -0.22512595 -0.186 4282002178
-0.12225562 -0.22692855 -0.186 4281935872
-0.12216664 -0.22844839 -0.18500002 4282133254
-0.12198868 -0.22967768 -0.18300004 4282329861
-0.12189969 -0.23118453 -0.18200006 4282001928
-0.12172171 -0.23239563 -0.18000002 4282001928
-0.12163273 -0.23388951 -0.17900003 4280950272
-0.12163273 -0.2356739 -0.17900003 4280489472
-0.12163273 -0.23745832 -0.17900003 4280687616
-0.12163273 -0.23924272 -0.17900003 4281607424
-0.12172171 -0.24133065 -0.18000002 4281804803
-0.1218107 -0.24342379 -0.18100001 4282001668
-0.12189969 -0.24552214 -0.18200006 4281805314
-0.12207766 -0.24793698 -0.18400003 4281871875
-0.12216664 -0.25004831 -0.18500002 4281740802
-0.12225562 -0.25216481 -0.186 4281806595
-0.12225562 -0.2539674 -0.186 4281870592
-0.12225562 -0.25577 -0.186 4281804803
-0.12225562 -0.25757259 -0.186 4281805312
-0.12225562 -0.25937515 -0.186 4281805312
-0.12225562 -0.26117775 -0.186 4282264066
-0.12216664 -0.26264825 -0.18500002 4282002182
-0.12198868 -0.26377884 -0.18300004 4281805316
-0.12189969 -0.26523635 -0.18200006 4281936900
-0.1218107 -0.26668864 -0.18100001 4281805312
-0.12163273 -0.26779327 -0.17900003 4281805312
-0.12163273 -0.26957768 -0.17900003 4281935875
-0.12154375 -0.27101439 -0.17800005 4281934851
-0.12136578 -0.27209562 -0.17600001 4281344000
-0.12136578 -0.27387223 -0.17600001 4281146884
-0.12136578 -0.27564886 -0.17600001 4281081091
-0.12136578 -0.27742547 -0.17600001 4280817665
-0.12136578 -0.27920207 -0.17600001 4281210626
-0.12145477 -0.281342 -0.17700006 4281540096
-0.12163273 -0.28385293 -0.17900003 4281803267
-0.12163273 -0.28563735 -0.17900003 4281540611
-0.1218107 -0.28816387 -0.18100001 4281278468
-0.12189969 -0.29032713 -0.18200006 4281213697
-0.12189969 -0.29211935 -0.18200006 4281346048
-0.12198868 -0.29429039 -0.18300004 4281280256
-0.12216664 -0.29684809 -0.18500002 4281345281
-0.12225562 -0.29903212 -0.186 4281345281
-0.12405822 0.29221737 -0.186 4283457028
-0.12405822 0.29041478 -0.186 4284049165
-0.12414981 0.28907493 -0.18700005 4284113171
-0.12424138 0.28772983 -0.18800004 4285225744
-0.12424138 0.28592205 -0.18800004 4285356814
-0.12424138 0.28411424 -0.18800004 4285422607
-0.12433296 0.28275877 -0.18900003 4284963339
-0.12433296 0.2809484 -0.18900003 4285094923
-0.12442455 0.27958512 -0.19000001 4285028619
-0.12442455 0.27777213 -0.19000001 4285290767
-0.12451614 0.2764011 -0.19100006 4285159181
-0.12451614 0.27458552 -0.19100006 4285028367
-0.12451614 0.27276993 -0.19100006 4285159701
-0.12442455 0.18893613 -0.19000001 4284435978
-0.12433296 0.1868085 -0.18900003 4284699148
-0.12433296 0.18499812 -0.18900003 4284305677
-0.12433296 0.18318774 -0.18900003 4284371470
-0.12433296 0.18137735 -0.18900003 4284502802
-0.12433296 0.17956698 -0.18900003 4284502023
-0.12433296 0.17775659 -0.18900003 4284567816
-0.12433296 0.17594621 -0.18900003 4284567564
-0.12433296 0.17413583 -0.18900003 4284501771
-0.12433296 0.17232545 -0.18900003 4284502023
-0.12442455 0.17080633 -0.19000001 4284699402
-0.12442455 0.16899335 -0.19000001 4284502788
-0.12442455 0.16718037 -0.19000001 4284765454
-0.12442455 0.16536739 -0.19000001 4284699661
-0.12433296 0.16327354 -0.18900003 4284567566
-0.12433296 0.16146316 -0.18900003 4284567564
-0.12433296 0.15965277 -0.18900003 4284436493
-0.12433296 0.1578424 -0.18900003 4284371470
-0.12433296 0.15603201 -0.18900003 4284239884
-0.12433296 0.15422162 -0.18900003 4284305425
-0.12424138 0.15214595 -0.18800004 4284239632
-0.12424138 0.15033817 -0.18800004 4284305423
-0.12433296 0.14879048 -0.18900003 4284108044
-0.12433296 0.14698011 -0.18900003 4284436491
-0.12433296 0.14516972 -0.18900003 4284108808
-0.12433296 0.14335933 -0.18900003 4284043019
-0.12433296 0.14154895 -0.18900003 4284371216
-0.12433296 0.13973857 -0.18900003 4284239630
-0.12433296 0.13792819 -0.18900003 4284305677
-0.12433296 0.1361178 -0.18900003 4284109323
-0.12433296 0.13430743 -0.18900003 4283977485
-0.12424138 0.13226032 -0.18800004 4284043278
-0.12414981 0.13021842 -0.18700005 4283977485
-0.12405822 0.12818168 -0.186 4284042251
-0.12405822 0.1263791 -0.186 4284238347
-0.12396663 0.12435018 -0.18500002 4284239114
-0.12369189 0.12187898 -0.18200006 4284108298
-0.12369189 0.12008677 -0.18200006 4284174091
-0.12341715 0.11763895 -0.17900003 4284304653
-0.12341715 0.11585453 -0.17900003 4283977233
-0.12323398 0.11364344 -0.17700006 4283911181
-0.12314239 0.11165346 -0.17600001 4284108044
-0.12314239 0.10987684 -0.17600001 4284108044
-0.12305081 0.10789467 -0.17500003 4284304653
-0.12305081 0.10612066 -0.17500003 4284370187
-0.12305081 0.10434663 -0.17500003 4284304905
-0.12314239 0.10277039 -0.17600001 4284108044
-0.12332556 0.1013841 -0.17800005 4284042251
-0.12350872 0.099987432 -0.18000002 4284435980
-0.12369189 0.098580375 -0.18200006 4284370185
-0.12387505 0.097162917 -0.18400003 4284631304
-0.12405822 0.095735073 -0.186 4284631304
-0.12414981 0.094114661 -0.18700005 4284958472
-0.12424138 0.092489056 -0.18800004 4285219595
-0.12433296 0.090858258 -0.18900003 4285284875
-0.12433296 0.089047872 -0.18900003 4285350668
-0.12442455 0.08740928 -0.19000001 4285811723
-0.12442455 0.069279484 -0.19000001 4286270469
-0.12433296 0.06732329 -0.18900003 4286403590
-0.12433296 0.06551291 -0.18900003 4286535428
-0.12433296 0.063702524 -0.18900003 4286339594
-0.12424138 0.061756723 -0.18800004 4286010629
-0.12433296 0.060081765 -0.18900003 4286470153
-0.12424138 0.05814115 -0.18800004 4286667266
-0.12424138 0.056333363 -0.18800004 4286207494
-0.12424138 0.054525584 -0.18800004 4286141701
-0.12424138 0.05271779 -0.18800004 4285747725
-0.12424138 0.050910003 -0.18800004 4285616393
-0.12433296 0.049219467 -0.18900003 4285221129
-0.12424138 0.047294438 -0.18800004 4285419014
-0.12414981 0.045374602 -0.18700005 4285155842
-0.12405822 0.043459959 -0.186 4284958464
-0.12396663 0.041550517 -0.18500002 4284302080
-0.12396663 0.039750524 -0.18500002 4283709952
-0.12396663 0.037950531 -0.18500002 4283248640
-0.12396663 0.036150537 -0.18500002 4283117056
-0.12405822 0.034447014 -0.186 4283312128
-0.12405822 0.032644421 -0.186 4283116032
-0.12405822 0.030841833 -0.186 4283180800
-0.12405822 0.02903924 -0.186 4283441920
-0.12414981 0.02732273 -0.18700005 4283376128
-0.12405822 0.02543406 -0.186 4283310848
-0.12405822 0.023631467 -0.186 4283376128
-0.12396663 0.021750594 -0.18500002 4284096768
-0.12396663 0.0199506 -0.18500002 4284554752
-0.12387505 0.018077521 -0.18400003 4284488960
-0.12378348 0.016209634 -0.18300004 4284883457
-0.12369189 0.014346945 -0.18200006 4284817920
-0.12369189 0.012554745 -0.18200006 4284620544
-0.12369189 0.010762545 -0.18200006 4284492032
-0.12369189 0.0089703416 -0.18200006 4284360448
-0.12369189 0.0071781413 -0.18200006 4283900672
-0.12369189 0.0053859414 -0.18200006 4283834624
-0.12378348 0.0036460522 -0.18300004 4283702528
-0.12378348 0.001851252 -0.18300004 4283702528
-0.12378348 5.6455581e-05 -0.18300004 4283244544
-0.12396663 -0.0016493083 -0.18500002 4281932544
-0.12396663 -0.0034493015 -0.18500002 4281146369
-0.12405822 -0.0052099708 -0.186 4280950272
-0.12405822 -0.0070125605 -0.186 4281016064
-0.12433296 -0.0087127658 -0.18900003 4281344513
-0.12433296 -0.010523147 -0.18900003 4281345281
-0.12451614 -0.012275663 -0.19100006 4281411587
-0.12451614 -0.050402783 -0.19100006 4283187204
-0.12451614 -0.052218359 -0.19100006 4283385100
-0.12451614 -0.054033935 -0.19100006 4282924295
-0.12442455 -0.055816106 -0.19000001 4289108546
-0.12442455 -0.057629086 -0.19000001 4288976177
-0.10674913 -0.080849491 0.0030000047 4278723889
-0.10684072 -0.082259521 0.001999958 4279115567
-0.1069323 -0.083674736 0.00099997094 4279115565
-0.1069323 -0.084991612 0.00099997094 4279312944
-0.10702388 -0.08641462 -1.6212464e-08 4279182639
-0.10711546 -0.087842822 -0.0010000033 4278986548
-0.10720705 -0.089276224 -0.0020000502 4278986809
-0.10729863 -0.09071482 -0.0030000373 4279184186
-0.10739021 -0.092158601 -0.0040000244 4279249979
-0.10757338 -0.093726702 -0.0059999987 4278790965
-0.10775654 -0.095305197 -0.008000032 4278594870
-0.1080313 -0.097018391 -0.011000053 4278790963
-0.10830604 -0.098747164 -0.014000014 4278790963
-0.10867237 -0.10062103 -0.018000023 4278987059
-0.1090387 -0.10251568 -0.022000032 4278920751
-0.10940503 -0.10443111 -0.02600004 4279248684
-0.10977136 -0.10636732 -0.030000048 4279314477
-0.1100461 -0.1081844 -0.033000007 4281353027
-0.11022927 -0.10987458 -0.035000041 4282602039
-0.11041243 -0.11157515 -0.037000015 4284175382
-0.1105956 -0.11328611 -0.039000049 4287662411
-0.11077876 -0.11500745 -0.041000023 4288186150
-0.12414981 -0.14417009 -0.18700005 4282068234
-0.12424138 -0.14613855 -0.18800004 4281936648
-0.12424138 -0.14794633 -0.18800004 4281739271
-0.12433296 -0.14992258 -0.18900003 4281805316
-0.12433296 -0.15173297 -0.18900003 4281739520
-0.12442455 -0.15371701 -0.19000001 4281477632
-0.12442455 -0.15552999 -0.19000001 4281609218
-0.12451614 -0.15752183 -0.19100006 4281608966
-0.12451614 -0.21017358 -0.19100006 4282264586
-0.12442455 -0.21173236 -0.19000001 4282133764
-0.12442455 -0.21354534 -0.19000001 4282067721
-0.12442455 -0.21535832 -0.19000001 4282199307
-0.12442455 -0.2171713 -0.19000001 4282067721
-0.12442455 -0.21898428 -0.19000001 4282133252
-0.12433296 -0.22052749 -0.18900003 4281870596
-0.12433296 -0.22233787 -0.18900003 4281936902
-0.12424138 -0.2238733 -0.18800004 4282001664
-0.12414981 -0.22540353 -0.18700005 4282133250
-0.12405822 -0.22692855 -0.186 4281870596
-0.12405822 -0.22873114 -0.186 4282067723
-0.12387505 -0.22996303 -0.18400003 4282133254
-0.12369189 -0.23118453 -0.18200006 4282001668
-0.1236003 -0.23268618 -0.18100001 4282199047
-0.12350872 -0.23418264 -0.18000002 4281411587
-0.12350872 -0.23596965 -0.18000002 4281016581
-0.12350872 -0.23775665 -0.18000002 4280489472
-0.12350872 -0.23954366 -0.18000002 4281146880
-0.1236003 -0.24163419 -0.18100001 4281146880
-0.12369189 -0.24372993 -0.18200006 4281738244
-0.12369189 -0.24552214 -0.18200006 4281739523
-0.12387505 -0.24793698 -0.18400003 4282068484
-0.12396663 -0.25004831 -0.18500002 4281806082
-0.12405822 -0.25216481 -0.186 4281871875
-0.12405822 -0.2539674 -0.186 4282002945
-0.12405822 -0.25577 -0.186 4281936902
-0.12405822 -0.25757259 -0.186 4281739521
-0.12405822 -0.25937515 -0.186 4281805314
-0.12405822 -0.26117775 -0.186 4282133252
-0.12396663 -0.26264825 -0.18500002 4281674246
-0.12387505 -0.26411355 -0.18400003 4281542914
-0.12378348 -0.26557365 -0.18300004 4281542662
-0.12369189 -0.26702854 -0.18200006 4281146882
-0.1236003 -0.26847824 -0.18100001 4281212675
-0.12341715 -0.26957768 -0.17900003 4281212677
-0.12341715 -0.27136207 -0.17900003 4281016066
-0.12332556 -0.27279621 -0.17800005 4280950273
-0.12323398 -0.27422515 -0.17700006 4281016579
-0.12323398 -0.27600434 -0.17700006 4280950786
-0.12323398 -0.27778357 -0.17700006 4281476099
-0.12323398 -0.27956277 -0.17700006 4281868800
-0.12332556 -0.28170526 -0.17800005 4282066688
-0.12341715 -0.28385293 -0.17900003 4282066688
-0.12341715 -0.28563735 -0.17900003 4282066688
-0.1236003 -0.28816387 -0.18100001 4282000131
-0.12369189 -0.29032713 -0.18200006 4281935105
-0.12369189 -0.29211935 -0.18200006 4281673728
-0.12387505 -0.29466924 -0.18400003 4281607936
-0.12396663 -0.29684809 -0.18500002 4281673478
-0.12405822 -0.29903212 -0.186 4281739017
-0.12595499 0.28907493 -0.18700005 4285029902
-0.12604916 0.28772983 -0.18800004 4285356812
-0.12614335 0.28637955 -0.18900003 4285225998
-0.12614335 0.28456914 -0.18900003 4285225998
-0.12614335 0.28275877 -0.18900003 4285094671
-0.12614335 0.2809484 -0.18900003 4285225744
-0.1263317 0.28003225 -0.19100006 4285356049
-0.1263317 0.27821666 -0.19100006 4285159183
-0.1263317 0.2764011 -0.19100006 4285290769
-0.1263317 0.27458552 -0.19100006 4285290769
-0.1263317 0.19106898 -0.19100006 4284829968
-0.12623753 0.18893613 -0.19000001 4284501773
-0.12614335 0.1868085 -0.18900003 4284503054
-0.12614335 0.18499812 -0.18900003 4284371470
-0.12614335 0.18318774 -0.18900003 4284371470
-0.12614335 0.18137735 -0.18900003 4284502802
-0.12614335 0.17956698 -0.18900003 4284436491
-0.12614335 0.17775659 -0.18900003 4284502282
-0.12614335 0.17594621 -0.18900003 4284633870
-0.12614335 0.17413583 -0.18900003 4284502284
-0.12614335 0.17232545 -0.18900003 4284567816
-0.12614335 0.17051506 -0.18900003 4284567814
-0.12623753 0.16899335 -0.19000001 4284568066
-0.12614335 0.1668943 -0.18900003 4284765445
-0.12614335 0.16508391 -0.18900003 4284765445
-0.12614335 0.16327354 -0.18900003 4284502023
-0.12614335 0.16146316 -0.18900003 4284502282
-0.12614335 0.15965277 -0.18900003 4284175118
-0.12614335 0.1578424 -0.18900003 4284240396
-0.12614335 0.15603201 -0.18900003 4284174603
-0.12604916 0.15395373 -0.18800004 4284436489
-0.12604916 0.15214595 -0.18800004 4284305673
-0.12604916 0.15033817 -0.18800004 4284370698
-0.12604916 0.14853038 -0.18800004 4284239112
-0.12604916 0.1467226 -0.18800004 4284370700
-0.12604916 0.14491482 -0.18800004 4284174089
-0.12614335 0.14335933 -0.18900003 4284108810
-0.12614335 0.14154895 -0.18900003 4284305423
-0.12614335 0.13973857 -0.18900003 4284173837
-0.12614335 0.13792819 -0.18900003 4284305423
-0.12604916 0.1358759 -0.18800004 4284109325
-0.12604916 0.1340681 -0.18800004 4284043532
-0.12595499 0.1320236 -0.18700005 4284108558
-0.12586081 0.12998427 -0.186 4284108558
-0.12586081 0.12818168 -0.186 4284238608
-0.12576662 0.12615016 -0.18500002 4284172808
-0.12567244 0.12412384 -0.18400003 4284304392
-0.12548409 0.12187898 -0.18200006 4284239114
-0.1253899 0.11986563 -0.18100001 4284370700
-0.12520155 0.11763895 -0.17900003 4284238862
-0.12520155 0.11585453 -0.17900003 4284042513
-0.12510736 0.11385678 -0.17800005 4284108044
-0.12491901 0.11165346 -0.17600001 4284043017
-0.12491901 0.10987684 -0.17600001 4284043017
-0.12491901 0.10810024 -0.17600001 4284173839
-0.12482483 0.10612066 -0.17500003 4284369935
-0.12482483 0.10434663 -0.17500003 4284501003
-0.12491901 0.10277039 -0.17600001 4284435210
-0.12510736 0.1013841 -0.17800005 4284369417
-0.12529573 0.099987432 -0.18000002 4285025035
-0.12548409 0.098580375 -0.18200006 4285416965
-0.12567244 0.097162917 -0.18400003 4285940488
-0.12586081 0.095735073 -0.186 4286072074
-0.12586081 0.09393248 -0.186 4286005768
-0.12595499 0.092309482 -0.18700005 4285874436
-0.12595499 0.090504296 -0.18700005 4286465540
-0.12604916 0.088873491 -0.18800004 4286662919
-0.12614335 0.087237492 -0.18900003 4286402309
-0.12623753 0.085596301 -0.19000001 4286073344
-0.1263317 0.073056467 -0.19100006 4286470153
-0.1263317 0.071240887 -0.19100006 4286338567
-0.12614335 0.069133669 -0.18900003 4286469385
-0.12614335 0.06732329 -0.18900003 4286404360
-0.12604916 0.065372288 -0.18800004 4286404614
-0.12595499 0.06342648 -0.18700005 4286142985
-0.12595499 0.061621293 -0.18700005 4285748227
-0.12595499 0.059816107 -0.18700005 4285879045
-0.12595499 0.058010921 -0.18700005 4285747712
-0.12595499 0.056205735 -0.18700005 4285485057
-0.12595499 0.054400548 -0.18700005 4284892931
-0.12595499 0.052595355 -0.18700005 4285090310
-0.12604916 0.050910003 -0.18800004 4284367360
-0.12604916 0.049102224 -0.18800004 4284498691
-0.12595499 0.047179788 -0.18700005 4285025033
-0.12586081 0.045262553 -0.186 4284893447
-0.12576662 0.04335051 -0.18500002 4284498944
-0.12567244 0.041443661 -0.18400003 4283841280
-0.12557827 0.039542012 -0.18300004 4283117568
-0.12567244 0.037848875 -0.18400003 4283577602
-0.12567244 0.036051475 -0.18400003 4283380224
-0.12567244 0.034254082 -0.18400003 4283379458
-0.12576662 0.032550551 -0.18500002 4283314690
-0.12576662 0.030750563 -0.18500002 4285089304
