# .PCD v0.7 - Point Cloud Data file format
VERSION 0.7
FIELDS x y z rgb
SIZE 4 4 4 4
TYPE F F F U
COUNT 1 1 1 1
WIDTH 1043
HEIGHT 1
VIEWPOINT 0 0 0 1 0 0 0
POINTS 1043
DATA ascii
0.14960827 0.045725621 -0.038849439 4291936575
0.14917535 0.0463439 -0.039377943 4291081003
0.14799383 0.046287861 -0.04022317 4290883624
0.14680983 0.046235304 -0.041071411 4290620452
0.14562342 0.046186268 -0.041922629 4290685991
0.14443451 0.046140723 -0.042776853 4290620202
0.14324318 0.046098694 -0.043634057 4290488616
0.14280412 0.046725735 -0.044170048 4289897004
0.13997012 0.047286209 -0.046435438 4285821226
0.13338917 0.07411921 -0.060440727 4281738496
0.13295993 0.074732244 -0.060964741 4281671936
0.13333204 0.075944282 -0.061107635 4281935105
0.13290402 0.076555565 -0.061630152 4281868800
0.132476 0.07716684 -0.062152665 4281934592
0.132048 0.077778108 -0.062675178 4282000384
0.1324262 0.078981385 -0.0628106 4281868800
0.13199942 0.079590909 -0.063331619 4281869312
0.13238133 0.08078894 -0.063462533 4281737216
0.13276568 0.081983462 -0.063590467 4282196992
0.13234134 0.082589485 -0.064108491 4282328064
0.13272937 0.083778746 -0.064231932 4282328064
0.13393347 0.085546017 -0.06395629 4282393856
0.13716191 0.091396034 -0.063597985 4283838464
0.13838808 0.093131773 -0.063295394 4285483269
0.13961917 0.094860502 -0.062986821 4284560640
0.13921076 0.095443755 -0.063485377 4284165888
0.14044918 0.097161971 -0.063167825 4284100352
0.14004323 0.097741716 -0.063663393 4284100864
0.14046317 0.098885454 -0.063747898 4284035072
0.14005846 0.099463448 -0.064241968 4284035072
0.14048205 0.10060191 -0.064321987 4284035072
0.14007856 0.10117817 -0.064814568 4284364288
0.14050587 0.1023114 -0.064890079 4284233216
0.14010359 0.10288589 -0.065381154 4283510016
0.14053455 0.10401385 -0.065452196 4282918912
0.14013352 0.10458659 -0.065941773 4282919424
0.14056817 0.10570931 -0.066008314 4282985216
0.14016835 0.1062803 -0.066496395 4283313664
0.14060667 0.10739775 -0.06655845 4283511042
0.14020808 0.10796699 -0.067045033 4283773696
0.14065009 0.1090792 -0.067102589 4284102659
0.14109455 0.1101879 -0.067157157 4284299009
0.14154144 0.11129309 -0.067208745 4284562181
0.14199081 0.11239479 -0.067257315 4284956164
0.14244261 0.11349297 -0.067302898 4285021953
0.14420156 0.11621132 -0.066947073 4285351170
0.14551111 0.11782794 -0.066542685 4285219840
0.14767599 0.11996654 -0.0656913 4285483008
0.14899661 0.12156741 -0.065273426 4285613312
0.15653096 0.12998511 -0.062644273 4286008832
0.15702327 0.13102551 -0.062640443 4286732032
0.15751798 0.13206239 -0.062633619 4289165322
0.15715374 0.13258259 -0.063078292 4288044032
0.1567895 0.13310279 -0.06352295 4287846656
0.15642525 0.13362299 -0.063967615 4287385856
0.15606101 0.13414319 -0.064412273 4288308746
0.15569676 0.13466337 -0.064856932 4288440845
0.15533251 0.13518357 -0.065301597 4285611520
0.15409949 0.1352011 -0.066209711 4285282560
0.15373401 0.13572304 -0.066655867 4284691712
0.15249728 0.13574581 -0.067568481 4284494848
0.15213059 0.13626951 -0.068016142 4284232704
0.1508902 0.13629752 -0.068933226 4284232704
0.15052228 0.13682298 -0.069382384 4283970048
0.14927818 0.13685624 -0.070303984 4283707648
0.14890903 0.13738345 -0.070754632 4283313920
0.14766128 0.137422 -0.071680717 4283050752
0.14729092 0.13795094 -0.072132856 4283116544
0.14603949 0.13799474 -0.073063426 4283051264
0.14566788 0.13852544 -0.073517069 4282919680
0.14441276 0.13857448 -0.074452139 4282985984
0.14403993 0.13910694 -0.074907281 4283118848
0.14366709 0.13963939 -0.075362429 4282658304
0.14329426 0.14017186 -0.075817563 4281407488
0.14203303 0.14022966 -0.076760113 4281275392
0.14165896 0.14076386 -0.077216752 4281078784
0.054456081 0.10490537 -0.12873439 4278387968
0.053969193 0.10560073 -0.12932877 4278256896
0.054387882 0.1067462 -0.1294148 4278322688
0.054749437 0.10971674 -0.13016772 4278715648
0.055176739 0.11084998 -0.13024324 4278715904
0.054694757 0.11153831 -0.13083163 4278715904
0.055125702 0.11266629 -0.13090268 4278781696
0.055559117 0.11379074 -0.13097072 4279044865
0.055079587 0.11447557 -0.13155612 4279437825
0.05551669 0.1155948 -0.13161966 4279635712
0.05595623 0.1167105 -0.13168022 4279504128
0.056398254 0.1178227 -0.13173777 4280160256
0.056842688 0.1189314 -0.13179235 4280359169
0.056368068 0.11960923 -0.13237175 4280424962
0.056816217 0.12071268 -0.13242182 4281146884
0.057266787 0.12181263 -0.13246891 4281079296
0.056794621 0.12248695 -0.13304532 4281210368
0.057248905 0.12358164 -0.1330879 4281868547
0.056777958 0.12425423 -0.13366282 4281605632
0.057235893 0.12534365 -0.13370092 4281539840
0.057696283 0.12642957 -0.13373603 4282458881
0.057227787 0.12709865 -0.13430797 4282655488
0.056759298 0.12776773 -0.13487989 4281866752
0.05722462 0.12884665 -0.13490899 4282064128
0.05675735 0.12951398 -0.13547942 4282064128
0.056290094 0.1301813 -0.13604984 4282064128
0.055822823 0.13084863 -0.13662027 4282064128
0.056294248 0.13191879 -0.13664189 4282064128
0.05582821 0.13258436 -0.13721082 4282064128
0.055362169 0.13324992 -0.13777974 4282064128
0.054896131 0.1339155 -0.13834867 4282064128
0.055373721 0.13497691 -0.13836281 4282064128
0.054908901 0.13564074 -0.13893025 4282064128
0.055390138 0.13669689 -0.1389399 4282064128
0.054926548 0.13735896 -0.13950583 4282064128
0.054462977 0.13802101 -0.14007176 4282064128
0.053999387 0.13868308 -0.1406377 4282064128
0.054486778 0.1397305 -0.14063986 4282064128
0.054024428 0.1403908 -0.14120428 4282064128
0.053562064 0.14105113 -0.14176872 4282064128
0.053099703 0.14171144 -0.14233316 4282064128
0.052637346 0.14237176 -0.14289759 4282064128
0.052174989 0.14303207 -0.14346202 4282064128
0.05075429 0.14331757 -0.14459923 4282064128
0.050290711 0.14397962 -0.14516516 4282064128
0.050787915 0.14501302 -0.14515533 4282064128
0.050325554 0.14567333 -0.14571977 4282064128
0.049863197 0.14633365 -0.14628421 4282064128
0.04940084 0.14699396 -0.14684863 4282064128
0.048938479 0.14765429 -0.14741307 4282064128
0.048476122 0.1483146 -0.1479775 4282064128
0.048013765 0.14897491 -0.14854194 4282064128
0.047551405 0.14963524 -0.14910638 4282064128
0.048059624 0.15065284 -0.14908309 4282064128
0.047598485 0.15131143 -0.14964604 4282064128
0.047137354 0.15196998 -0.15020898 4282064128
0.046676215 0.15262856 -0.15077193 4282064128
0.15448315 0.2078779 -0.090821452 4282064128
0.1541692 0.2083263 -0.091204733 4282064128
0.15385523 0.20877467 -0.091588005 4282064128
0.15354128 0.20922306 -0.091971286 4282064128
0.15322731 0.20967145 -0.092354566 4282064128
0.15392931 0.21041232 -0.092094727 4282064128
0.15361656 0.21085896 -0.09247651 4282064128
0.15330383 0.2113056 -0.092858292 4282064128
0.1529911 0.21175222 -0.09324006 4282064128
0.15267836 0.21219885 -0.093621843 4282064128
0.15236562 0.21264549 -0.094003625 4282064128
0.15205288 0.21309213 -0.094385415 4282064128
0.15276472 0.213819 -0.094113573 4282064128
0.1524532 0.21426389 -0.094493859 4282064128
0.15214169 0.21470878 -0.094874151 4282064128
0.15285841 0.21542864 -0.094596349 4282064128
0.15254812 0.21587175 -0.094975129 4282064128
0.15223783 0.2163149 -0.095353924 4282064128
0.15295948 0.21702775 -0.095070116 4282064128
0.15265042 0.21746913 -0.095447406 4282064128
0.1533757 0.21817674 -0.095159128 4282064128
0.15306789 0.21861637 -0.095534906 4282064128
0.15276004 0.219056 -0.095910698 4282064128
0.15245222 0.21949562 -0.096286491 4282064128
0.15214439 0.21993525 -0.096662283 4282064128
0.15183656 0.22037488 -0.097038075 4282064128
0.15152873 0.22081451 -0.097413875 4282064128
0.15226386 0.2215081 -0.097113594 4282064128
0.15195726 0.22194597 -0.097487889 4282064128
0.15165065 0.22238386 -0.097862184 4282064128
0.15134405 0.22282173 -0.098236479 4282064128
0.15208527 0.22350655 -0.09792874 4282064128
0.1517799 0.22394268 -0.098301537 4282064128
0.15252483 0.22462226 -0.097989291 4282064128
0.15222068 0.22505665 -0.098360598 4282064128
0.15191653 0.22549102 -0.09873189 4282064128
0.15266636 0.22616358 -0.098413654 4282064128
0.15236345 0.22659621 -0.098783456 4282064128
0.15206051 0.22702883 -0.099153265 4282064128
0.15281525 0.22769439 -0.098829046 4282064128
0.15251356 0.22812526 -0.09919735 4282064128
0.15221186 0.22855614 -0.09956567 4282064128
0.15297151 0.2292147 -0.099235445 4282064128
0.15267104 0.22964382 -0.09960226 4282064128
0.15237056 0.23007295 -0.099969067 4282064128
0.15313509 0.2307245 -0.099632882 4282064128
0.15283585 0.23115186 -0.099998198 4282064128
0.15360408 0.23179817 -0.099657506 4282064128
0.15330607 0.23222378 -0.10002132 4282064128
0.15407798 0.23286483 -0.099676132 4282064128
0.15378118 0.23328871 -0.10003845 4282064128
0.15455677 0.23392449 -0.099688783 4282064128
0.1542612 0.2343466 -0.10004959 4282064128
0.15396564 0.23476872 -0.10041042 4282064128
0.15474613 0.2353975 -0.10005476 4282064128
0.15445179 0.23581786 -0.10041409 4282064128
0.15523596 0.23644139 -0.10005393 4282064128
0.15494284 0.23686002 -0.10041177 4282064128
0.15464973 0.23727861 -0.10076958 4282064128
0.15543881 0.23789515 -0.10040344 4282064128
0.15514693 0.23831201 -0.10075977 4282064128
0.15593967 0.23892327 -0.10038915 4282064128
0.15673488 0.23953106 -0.10001552 4282064128
0.15644544 0.2399444 -0.10036885 4282064128
0.15615602 0.24035776 -0.10072219 4282064128
0.15695612 0.24095853 -0.10034257 4282064128
0.15666792 0.24137013 -0.10069441 4282064128
0.15637971 0.24178173 -0.10104624 4282064128
0.15718473 0.24237549 -0.10066064 4282064128
0.15689775 0.24278535 -0.10101098 4282064128
0.15661077 0.24319519 -0.10136131 4282064128
0.15632379 0.24360503 -0.10171165 4282064128
0.15713495 0.24419005 -0.10131858 4282064128
0.15684919 0.24459814 -0.10166741 4282064128
0.15656345 0.24500625 -0.10201626 4282064128
0.15627769 0.24541435 -0.1023651 4282064128
0.16148214 0.025281077 -0.024291053 4286474510
0.1617565 0.026632724 -0.024550088 4286540303
0.16132236 0.027252756 -0.025080089 4286737682
0.16088821 0.027872788 -0.025610089 4287066901
0.16116746 0.029217409 -0.025863139 4287790370
0.16144915 0.030558523 -0.026113203 4288974632
0.16101745 0.031175053 -0.026640208 4290357803
0.16130285 0.032510936 -0.026885768 4290620975
0.16087238 0.033125713 -0.027411276 4290752561
0.16116144 0.034456316 -0.027652357 4290753331
0.16073219 0.035069343 -0.028176367 4290819124
0.16030295 0.035682369 -0.02870038 4291016505
0.15987371 0.036295395 -0.029224392 4291213634
0.16016892 0.037617266 -0.029457973 4291213634
0.1597409 0.038228542 -0.029980488 4291147841
0.15931287 0.038839813 -0.030503001 4291213632
0.15888485 0.039451089 -0.031025516 4291279423
0.15845683 0.040062364 -0.031548031 4291279423
0.15802883 0.040673636 -0.032070544 4291411009
0.15760081 0.041284911 -0.03259306 4291476802
0.15717278 0.041896187 -0.033115573 4291608388
0.15674476 0.042507458 -0.03363809 4291674435
0.15631674 0.043118734 -0.034160603 4291674435
0.15588872 0.043730009 -0.034683116 4291740228
0.15472277 0.043651704 -0.035512529 4291740228
0.15429352 0.04426473 -0.036036544 4291871812
0.15386426 0.044877756 -0.036560554 4292003398
0.15343502 0.045490779 -0.037084565 4292003398
0.15226294 0.045421258 -0.037921455 4291871812
0.15183248 0.046036031 -0.038446963 4291937605
0.1506567 0.04597174 -0.039288353 4292002882
0.1494785 0.045910973 -0.040132724 4291279405
0.14829783 0.045853708 -0.040980097 4290950440
0.14711469 0.045799922 -0.041830473 4290818342
0.14667931 0.046421707 -0.042361971 4290818344
0.14549252 0.0463732 -0.043216825 4290489127
0.14430325 0.046328176 -0.044074684 4290291748
0.14311156 0.046286676 -0.044935524 4290160162
0.14191738 0.046248652 -0.045799375 4289634852
0.14072078 0.046214156 -0.046666209 4289635892
0.14027926 0.046844698 -0.047205195 4288255025
0.13443223 0.076116495 -0.06147062 4281934592
0.13400543 0.076726019 -0.061991639 4281868800
0.13357863 0.077335544 -0.062512659 4281934592
0.13395602 0.078540057 -0.062645935 4281737216
0.13433583 0.079741061 -0.062776215 4281737216
0.13391149 0.080347076 -0.063294239 4282000384
0.13429499 0.08154282 -0.063420035 4282000384
0.13468094 0.082735077 -0.063542828 4282196992
0.13425906 0.083337598 -0.064057857 4282393856
0.13464868 0.084524587 -0.064176165 4282328064
0.13585351 0.086290799 -0.063893251 4282393856
0.13706326 0.088050008 -0.063604355 4282722305
0.13746269 0.08922299 -0.063710682 4282853889
0.13868102 0.090969935 -0.063411303 4282919680
0.1390866 0.09213417 -0.063510142 4284430336
0.14031352 0.093868859 -0.06320028 4285285377
0.14072523 0.095024318 -0.063291639 4284100608
0.14113937 0.096176274 -0.06338001 4283903232
0.14073342 0.096756026 -0.063875571 4284034560
0.14115128 0.097902745 -0.063959435 4283968768
0.14074656 0.098480739 -0.064453505 4283969280
0.14116807 0.099622183 -0.064532891 4283903488
0.14076459 0.10019842 -0.065025456 4283903488
0.1411898 0.10133464 -0.065100342 4284364034
0.14078753 0.10190912 -0.06559141 4284233216
0.14038527 0.10248362 -0.066082485 4283246848
0.139983 0.10305811 -0.06657356 4282918912
0.14041433 0.10418554 -0.066640966 4282985216
0.14084813 0.10530949 -0.066705368 4282985216
0.14044832 0.10588048 -0.067193449 4283379969
0.14088577 0.10699917 -0.067253366 4283577602
0.14048718 0.10756841 -0.067739949 4283906050
0.14092834 0.10868184 -0.067795366 4284102659
0.14137192 0.10979176 -0.067847796 4284299008
0.14181796 0.11089818 -0.067897245 4284693765
0.14226647 0.11200111 -0.067943677 4285219332
0.14271742 0.11310051 -0.067987129 4285219586
0.15715443 0.1290947 -0.062835939 4285942528
0.15850152 0.13065775 -0.062379353 4288374539
0.15813728 0.13117795 -0.062824011 4289560071
0.1586324 0.13221432 -0.06281355 4289097217
0.15826938 0.13273276 -0.063256718 4288307456
0.15790637 0.13325121 -0.063699879 4287781120
0.15754335 0.13376966 -0.064143047 4288439042
0.15718032 0.1342881 -0.064586215 4288112384
0.1568173 0.13480654 -0.065029375 4286137600
0.15558757 0.13481933 -0.065936647 4285085952
0.15522332 0.13533951 -0.066381305 4284822784
0.15398993 0.13535756 -0.067293048 4284626432
0.15362445 0.13587952 -0.067739211 4284364032
0.15238735 0.13590281 -0.068655461 4284364032
0.15202065 0.13642649 -0.069103114 4284100608
0.1507799 0.13645506 -0.070023842 4284034816
0.15041198 0.1369805 -0.070472993 4283904256
0.14916752 0.1370143 -0.071398228 4283576576
0.14879836 0.1375415 -0.071848884 4282985472
0.14755026 0.13758056 -0.072778597 4283248640
0.14717987 0.13810952 -0.073230743 4283117056
0.14592808 0.13815384 -0.074164949 4282985472
0.14555648 0.13868454 -0.074618585 4283577600
0.14430098 0.1387341 -0.075557299 4282853888
0.14392816 0.13926657 -0.07601244 4282327552
0.14355533 0.13979901 -0.076467581 4281079040
0.14229494 0.13985561 -0.07741227 4281013504
0.14192089 0.14038981 -0.077868909 4280947712
0.14154683 0.14092401 -0.07832554 4281079296
0.055213612 0.10556693 -0.12966864 4278256643
0.054727949 0.10626054 -0.13026153 4278387712
0.055148255 0.10740376 -0.13034239 4278715136
0.055514224 0.110368 -0.13108355 4278649856
0.055032246 0.11105634 -0.13167194 4278650880
0.055462331 0.11218553 -0.13174084 4278650880
0.055894885 0.1133112 -0.13180676 4278782465
0.055415358 0.11399604 -0.13239215 4279110660
0.055851601 0.11511649 -0.13245356 4279635458
0.056290284 0.11623342 -0.13251199 4279635712
0.056731444 0.11734685 -0.13256739 4279766016
0.05625559 0.11802644 -0.1331483 4280226048
0.056700405 0.1191346 -0.13319924 4280489218
0.057147693 0.12023929 -0.13324717 4281079812
0.056674294 0.12091537 -0.13382508 4281343236
0.057125241 0.12201478 -0.13386853 4281080064
0.057578664 0.1231107 -0.13390897 4280684288
0.057107717 0.12378328 -0.13448389 4281539584
0.057564795 0.12487393 -0.13451985 4282065926
0.057095081 0.12554476 -0.13509327 4281935104
0.057555828 0.12663016 -0.13512476 4282130688
0.057087339 0.12729923 -0.13569668 4282788098
0.056618851 0.1279683 -0.1362686 4282985477
0.057084531 0.12904672 -0.13629407 4282985477
0.056617275 0.12971403 -0.13686448 4282985477
0.056150004 0.13038136 -0.13743491 4282985477
0.056620572 0.13145274 -0.13745441 4282985477
0.05615453 0.13211831 -0.13802333 4282985477
0.055688493 0.13278389 -0.13859226 4282985477
0.056163993 0.13384828 -0.13860576 4282985477
0.055699188 0.1345121 -0.13917318 4282985477
0.055234365 0.13517593 -0.13974062 4282985477
0.055714745 0.1362333 -0.13974814 4282985477
0.055251155 0.13689537 -0.14031407 4282985477
0.05478758 0.13755743 -0.14087999 4282985477
0.054323994 0.13821951 -0.14144593 4282985477
0.054810528 0.13926813 -0.14144596 4282985477
0.054348178 0.13992843 -0.14201038 4282985477
0.053885814 0.14058876 -0.14257482 4282985477
0.053423453 0.14124908 -0.14313926 4282985477
0.052961096 0.14190939 -0.1437037 4282985477
0.052498739 0.14256971 -0.14426813 4282985477
0.052036379 0.14323004 -0.14483257 4282985477
0.050615314 0.14351603 -0.14597338 4282985477
0.051111665 0.14455065 -0.14596143 4282985477
0.050649304 0.14521098 -0.14652587 4282985477
0.050186947 0.1458713 -0.1470903 4282985477
0.04972459 0.1465316 -0.14765474 4282985477
0.049262229 0.14719193 -0.14821918 4282985477
0.048799872 0.14785224 -0.14878361 4282985477
0.048337515 0.14851256 -0.14934805 4282985477
0.047875155 0.14917287 -0.14991249 4282985477
0.047412798 0.14983319 -0.15047692 4282985477
0.046950441 0.1504935 -0.15104136 4282985477
0.15533093 0.20666718 -0.090602279 4282393344
0.15501696 0.20711556 -0.090985551 4282393344
0.15470301 0.20756394 -0.091368832 4282393344
0.15438904 0.20801233 -0.091752112 4282393344
0.15407509 0.2084607 -0.092135385 4282393344
0.15376112 0.20890909 -0.092518665 4282393344
0.15446101 0.20965296 -0.092258185 4282393344
0.15414828 0.21009959 -0.09263996 4282393344
0.15383555 0.21054623 -0.09302175 4282393344
0.1535228 0.21099286 -0.093403533 4282393344
0.15321007 0.21143948 -0.093785301 4282393344
0.15289734 0.21188612 -0.094167084 4282393344
0.1525846 0.21233276 -0.094548866 4282393344
0.15227187 0.21277939 -0.094930649 4282393344
0.15298285 0.21350749 -0.094656684 4282393344
0.15267134 0.21395238 -0.095036969 4282393344
0.15235981 0.21439727 -0.095417254 4282393344
0.15307567 0.21511835 -0.095137313 4282393344
0.15276538 0.21556148 -0.095516093 4282393344
0.15348494 0.21627732 -0.095231652 4282393344
0.15317588 0.2167187 -0.095608935 4282393344
0.15286683 0.21716008 -0.095986225 4282393344
0.15359126 0.21786891 -0.095695816 4282393344
0.15328343 0.21830852 -0.096071601 4282393344
0.1529756 0.21874815 -0.096447393 4282393344
0.15266776 0.21918778 -0.096823186 4282393344
0.15235993 0.21962741 -0.097198978 4282393344
0.1520521 0.22006704 -0.09757477 4282393344
0.15174428 0.22050667 -0.097950563 4282393344
0.15143645 0.22094628 -0.098326348 4282393344
0.15217194 0.22163936 -0.098022439 4282393344
0.15186533 0.22207725 -0.098396741 4282393344
0.15260449 0.22276506 -0.098088354 4282393344
0.15229911 0.22320119 -0.098461159 4282393344
0.15199374 0.2236373 -0.098833948 4282393344
0.15273781 0.22431812 -0.098519564 4282393344
0.15243365 0.22475249 -0.098890871 4282393344
0.1521295 0.22518685 -0.099262163 4282393344
0.15287848 0.22586066 -0.098941796 4282393344
0.15257555 0.22629328 -0.099311598 4282393344
0.15227263 0.22672591 -0.099681407 4282393344
0.15302651 0.2273927 -0.099355042 4282393344
0.15272482 0.22782357 -0.099723347 4282393344
0.15242311 0.22825445 -0.10009166 4282393344
0.1531819 0.22891423 -0.09975931 4282393344
0.15288143 0.22934334 -0.10012612 4282393344
0.15258096 0.22977246 -0.10049292 4282393344
0.15334463 0.23042525 -0.1001546 4282393344
0.15458257 0.23214418 -0.099831261 4282393344
0.15428579 0.23256804 -0.10019358 4282393344
0.15398899 0.2329919 -0.1005559 4282393344
0.15476373 0.23362893 -0.1002041 4282393344
0.15446816 0.23405103 -0.1005649 4282393344
0.15417258 0.23447315 -0.10092573 4282393344
0.15495223 0.23510316 -0.10056793 4282393344
0.15465789 0.23552352 -0.10092726 4282393344
0.15436354 0.23594388 -0.10128658 4282393344
0.15514809 0.2365669 -0.10092279 4282393344
0.15485498 0.2369855 -0.10128061 4282393344
0.15564319 0.23760326 -0.10091233 4282393344
0.15535131 0.23802012 -0.10126866 4282393344
0.1561432 0.2386326 -0.1008959 4282393344
0.15585254 0.23904772 -0.10125073 4282393344
0.15664811 0.23965496 -0.10087347 4282393344
0.15635867 0.24006832 -0.1012268 4282393344
0.15715793 0.24067031 -0.10084505 4282393344
0.15686972 0.24108192 -0.10119689 4282393344
0.15658152 0.24149352 -0.10154872 4282393344
0.15629332 0.24190512 -0.10190056 4282393344
0.1570987 0.24249835 -0.10151132 4282393344
0.15681173 0.24290819 -0.10186166 4282393344
0.15652475 0.24331805 -0.102212 4282393344
0.15733503 0.24390429 -0.10181678 4282393344
0.15704928 0.24431239 -0.10216562 4282393344
0.15676352 0.24472049 -0.10251446 4282393344
0.15647776 0.24512859 -0.1028633 4282393344
0.161787 0.024845704 -0.025050104 4286343696
0.16135162 0.025467487 -0.025581602 4286408717
0.16162635 0.026818609 -0.025837002 4286540303
0.16119219 0.027438641 -0.026367001 4286869522
0.16147059 0.028784486 -0.026617918 4287132440
0.16103767 0.029402766 -0.02714642 4287986976
0.16131973 0.030743355 -0.027392849 4290488110
0.16160427 0.032080468 -0.027636267 4290619696
0.16117379 0.032695245 -0.028161775 4290818094
0.16146199 0.034027074 -0.028400719 4290818608
0.16103275 0.0346401 -0.028924732 4290819124
0.16060351 0.035253126 -0.029448742 4291016505
0.16017427 0.035866152 -0.029972754 4291082557
0.16046862 0.037189249 -0.030204199 4291148350
0.1600406 0.037800524 -0.030726714 4291148352
0.15961258 0.038411796 -0.031249229 4291148352
0.15918456 0.039023072 -0.031771746 4291279423
0.15875654 0.039634347 -0.032294258 4291411009
0.15832852 0.040245619 -0.032816771 4291476802
0.1579005 0.040856894 -0.033339288 4291411009
0.15747249 0.04146817 -0.033861801 4291411263
0.15704447 0.042079441 -0.034384314 4291674435
0.15661645 0.042690717 -0.034906831 4291608642
0.15618843 0.043301988 -0.035429344 4291608642
0.15576041 0.043913264 -0.03595186 4291871042
0.15533239 0.044524539 -0.036474373 4291740226
0.15490437 0.045135811 -0.036996886 4292003652
0.15373558 0.045061536 -0.037832931 4291872066
0.15330634 0.045674562 -0.038356941 4291872066
0.15287709 0.046287589 -0.038880952 4292003398
0.15170342 0.046220344 -0.039722972 4292068421
0.15052728 0.046156574 -0.040568002 4291411244
0.14934871 0.046096332 -0.041416004 4290950693
0.14816767 0.046039592 -0.042267013 4290884386
0.14698417 0.045986336 -0.043121021 4290883883
0.14579824 0.045936599 -0.043978013 4290423848
0.14460982 0.04589035 -0.044838011 4290292264
0.14341898 0.045847617 -0.045700993 4290160678
0.14222567 0.045808371 -0.046566978 4289897252
0.14178538 0.046437163 -0.047104467 4289569059
0.14058842 0.046403192 -0.047974937 4288911656
0.13938896 0.046372704 -0.048848405 4288714277
0.13601144 0.073861137 -0.06065166 4281935105
0.13638183 0.075075641 -0.060790282 4281737216
0.13595627 0.075683407 -0.0613098 4281868800
0.13553071 0.076291181 -0.061829317 4281868800
0.13590597 0.077498667 -0.06196196 4281934592
0.13548164 0.078104682 -0.062479984 4282000384
0.13586059 0.079306908 -0.06260813 4282065408
0.13543747 0.079911172 -0.063124657 4282065408
0.13582014 0.08110816 -0.063248307 4282262272
0.13539824 0.081710674 -0.063763328 4282196480
0.13578455 0.082902394 -0.063882492 4282328064
0.13698277 0.084678069 -0.0636013 4282394112
0.13737524 0.085861042 -0.063712969 4282394112
0.13777013 0.087040499 -0.063821651 4282328320
0.1389806 0.088798665 -0.063525483 4282788098
0.13938163 0.089969359 -0.063626684 4282985475
0.13978514 0.091136567 -0.063724875 4283248899
0.14100789 0.092877217 -0.063413732 4284299777
0.14141749 0.094035648 -0.063504457 4284364032
0.14182957 0.095190577 -0.063592181 4283969280
0.1422441 0.096342035 -0.063676901 4283969280
0.14266106 0.09748996 -0.063758641 4283969280
0.14225759 0.098066203 -0.064251207 4283903488
0.14267826 0.099208891 -0.06432844 4283837696
0.14227599 0.099783383 -0.064819515 4283837696
0.14270033 0.1009208 -0.064892262 4283772416
0.14229928 0.10149354 -0.065381847 4284430341
0.14189824 0.10206629 -0.065871425 4283706880
0.14149721 0.10263903 -0.066360995 4283377664
0.14152789 0.1043387 -0.066914335 4283312384
0.14112808 0.10490968 -0.067402415 4283509760
0.14156345 0.10603134 -0.067461692 4283642112
0.14116485 0.10660058 -0.067948274 4283773698
0.14160393 0.107717 -0.068003058 4283971073
0.14120656 0.10828448 -0.068488136 4284168706
0.14164929 0.10939563 -0.068538435 4284300032
0.14209446 0.11050328 -0.068585739 4284563203
0.14254212 0.11160743 -0.068630032 4285285892
0.15851128 0.12715691 -0.062132288 4286139905
0.15814458 0.12768061 -0.062579945 4286205952
0.15863149 0.12872873 -0.062576324 4287189760
0.15912083 0.1297733 -0.06256973 4289031949
0.15961263 0.13081442 -0.062560126 4292650272
0.16010687 0.131852 -0.062547542 4289292288
0.15974507 0.13236868 -0.062989213 4289225984
0.15938328 0.13288538 -0.063430876 4288109056
0.15902148 0.13340208 -0.063872546 4289559565
0.15865968 0.13391878 -0.064314216 4289362186
0.15743451 0.13392508 -0.065219112 4285941504
0.15707149 0.13444354 -0.065662272 4285546240
0.15670848 0.13496198 -0.06610544 4284823296
0.15547836 0.13497527 -0.067016348 4284560128
0.15511411 0.13549547 -0.067461006 4284692224
0.15388036 0.13551405 -0.068376385 4284495616
0.15351488 0.13603599 -0.068822548 4284166656
0.15227742 0.13605979 -0.069742434 4284298496
0.15191072 0.13658351 -0.070190094 4283969536
0.1506696 0.13661258 -0.071114451 4284167424
0.15030168 0.13713802 -0.071563601 4283971328
0.14905684 0.13717236 -0.072492473 4283248896
0.14780959 0.13721019 -0.073424324 4283248896
0.14743921 0.13773915 -0.07387647 4282985984
0.14618827 0.13778225 -0.074812815 4283117056
0.14581668 0.13831294 -0.075266458 4283644677
0.14544508 0.13884364 -0.075720102 4282525444
0.14418921 0.13889374 -0.076662444 4281735936
0.14381638 0.13942619 -0.077117585 4280947200
0.14255686 0.13948154 -0.078064412 4280619776
0.1421828 0.14001575 -0.078521051 4280751360
0.14180875 0.14054996 -0.078977689 4280751360
0.1414347 0.14108416 -0.079434328 4281540613
0.055068009 0.10577488 -0.13110824 4278519041
0.055487461 0.10691932 -0.13118698 4278519040
0.055909339 0.10806024 -0.13126273 4278584832
0.056279723 0.11101817 -0.13199212 4278781696
0.055798959 0.11170477 -0.13257901 4278650880
0.056230653 0.11283168 -0.13264278 4278650880
0.056664821 0.1139551 -0.13270356 4278716929
0.056186516 0.11463819 -0.13328746 4279372032
0.056624334 0.11575634 -0.13334374 4279635712
0.057064638 0.116871 -0.133397 4279635712
0.056588784 0.11755059 -0.13397792 4280028672
0.057032734 0.11865999 -0.13402671 4280094464
0.057479169 0.11976589 -0.13407251 4281012995
0.057005771 0.12044197 -0.13465042 4281342982
0.057455856 0.12154261 -0.13469173 4281080064
0.056983687 0.12221694 -0.13526815 4280552704
0.057437472 0.12331234 -0.13530494 4281540096
0.05789369 0.12440421 -0.13533877 4282395404
0.057423975 0.12507504 -0.13591218 4282001152
0.057883862 0.12616168 -0.13594154 4282195968
0.057415374 0.12683074 -0.13651346 4282459136
0.056946885 0.12749982 -0.13708536 4283117063
0.057411712 0.12857945 -0.13710871 4283117063
0.056944456 0.12924677 -0.13767913 4283117063
0.056477185 0.1299141 -0.13824956 4283117063
0.056946896 0.13098671 -0.13826692 4283117063
0.056480855 0.13165228 -0.13883585 4283117063
0.056014817 0.13231786 -0.13940477 4283117063
0.05554878 0.13298342 -0.1399737 4283117063
0.056024648 0.13404728 -0.13998355 4283117063
0.055559829 0.13471112 -0.14055099 4283117063
0.055095021 0.13537493 -0.14111841 4283117063
0.055575762 0.13643178 -0.14112231 4283117063
0.055112191 0.13709384 -0.14168824 4283117063
0.054648601 0.13775592 -0.14225417 4283117063
0.054185014 0.13841799 -0.1428201 4283117063
0.054671925 0.13946608 -0.14281647 4283117063
0.05420956 0.14012641 -0.14338091 4283117063
0.053747196 0.14078672 -0.14394535 4283117063
0.053284843 0.14144704 -0.14450979 4283117063
0.052822486 0.14210735 -0.14507422 4283117063
0.052360121 0.14276767 -0.14563866 4283117063
0.051897768 0.14342798 -0.1462031 4283117063
0.051435411 0.1440883 -0.14676753 4283117063
0.050973047 0.14474863 -0.14733197 4283117063
0.050510693 0.14540893 -0.14789639 4283117063
0.050048336 0.14606924 -0.14846084 4283117063
0.049585972 0.14672957 -0.14902528 4283117063
0.049123619 0.14738989 -0.1495897 4283117063
0.048661262 0.14805019 -0.15015414 4283117063
0.048198897 0.14871052 -0.15071858 4283117063
0.04773654 0.14937083 -0.15128301 4283117063
0.15555076 0.20635322 -0.091149658 4283117063
0.15523681 0.20680159 -0.091532923 4283117063
0.15492284 0.20724998 -0.091916203 4283117063
0.15460888 0.20769837 -0.092299484 4283117063
0.15429492 0.20814675 -0.092682756 4283117063
0.15398096 0.20859514 -0.093066037 4283117063
0.15366699 0.20904352 -0.093449317 4283117063
0.15436727 0.20978685 -0.093185201 4283117063
0.15405452 0.21023349 -0.093566984 4283117063
0.15374179 0.21068013 -0.093948767 4283117063
0.15342906 0.21112674 -0.094330534 4283117063
0.15311632 0.21157338 -0.094712317 4283117063
0.15280358 0.21202002 -0.095094107 4283117063
0.15249084 0.21246666 -0.09547589 4283117063
0.15320097 0.21319598 -0.095199779 4283117063
0.15288945 0.21364087 -0.095580064 4283117063
0.15257794 0.21408576 -0.095960349 4283117063
0.15329292 0.21480806 -0.09567827 4283117063
0.15298265 0.21525119 -0.096057057 4283117063
0.15339229 0.21640964 -0.096147761 4283117063
0.15308324 0.21685103 -0.096525051 4283117063
0.15380679 0.21756108 -0.096232496 4283117063
0.15349898 0.2180007 -0.096608281 4283117063
0.15319113 0.21844032 -0.096984074 4283117063
0.15288331 0.21887995 -0.097359866 4283117063
0.15257548 0.21931958 -0.097735658 4283117063
0.15226765 0.21975921 -0.098111451 4283117063
0.15165199 0.22063845 -0.098863028 4283117063
0.15238664 0.22133276 -0.098556988 4283117063
0.15208003 0.22177064 -0.098931283 4283117063
0.15281832 0.22245967 -0.098620757 4283117063
0.15251294 0.2228958 -0.098993562 4283117063
0.15220757 0.22333193 -0.099366352 4283117063
0.15295078 0.22401395 -0.099049836 4283117063
0.15264662 0.22444834 -0.099421144 4283117063
0.15234247 0.22488271 -0.099792436 4283117063
0.15309058 0.22555773 -0.099469922 4283117063
0.15278767 0.22599036 -0.099839725 4283117063
0.15248473 0.22642298 -0.10020953 4283117063
0.15323776 0.227091 -0.099881038 4283117063
0.15293606 0.22752187 -0.10024934 4283117063
0.15263435 0.22795275 -0.10061765 4283117063
0.15339229 0.22861376 -0.10028316 4283117063
0.15309182 0.22904287 -0.10064997 4283117063
0.15279135 0.229472 -0.10101678 4283117063
0.15355417 0.23012601 -0.10067632 4283117063
0.1547904 0.23184738 -0.1003487 4283117063
0.1544936 0.23227124 -0.10071102 4283117063
0.15419681 0.23269512 -0.10107335 4283117063
0.15497068 0.23333336 -0.10071939 4283117063
0.15467513 0.23375547 -0.1010802 4283117063
0.15437955 0.23417759 -0.10144103 4283117063
0.15515833 0.23480882 -0.1010811 4283117063
0.15486398 0.23522918 -0.10144042 4283117063
0.15456964 0.23564954 -0.10179974 4283117063
0.15535332 0.2362738 -0.10143382 4283117063
0.15506022 0.23669238 -0.10179164 4283117063
0.15584758 0.23731138 -0.10142122 4283117063
0.1555557 0.23772824 -0.10177755 4283117063
0.15634672 0.23834194 -0.10140265 4283117063
0.15605606 0.23875706 -0.10175748 4283117063
0.15685077 0.23936553 -0.10137808 4283117063
0.15656134 0.23977889 -0.10173141 4283117063
0.1562719 0.24019225 -0.10208475 4283117063
0.15707153 0.2407937 -0.10169936 4283117063
0.15678333 0.2412053 -0.1020512 4283117063
0.15649512 0.24161692 -0.10240303 4283117063
0.15729965 0.24221137 -0.10201166 4283117063
0.15701267 0.24262121 -0.10236199 4283117063
0.15672569 0.24303107 -0.10271233 4283117063
0.15643871 0.24344093 -0.10306268 4283117063
0.15724938 0.24402663 -0.10266381 4283117063
0.15696362 0.24443473 -0.10301265 4283117063
0.15667786 0.24484284 -0.10336149 4283117063
0.16165647 0.025032111 -0.026340658 4286278414
0.16193035 0.026384458 -0.026593922 4286212621
0.16149619 0.027004488 -0.027123922 4286278414
0.16177373 0.028351564 -0.027372696 4286475793
0.1613408 0.028969843 -0.027901199 4286738452
0.161622 0.030311661 -0.028145486 4287658261
0.16190569 0.031649996 -0.028386772 4289500465
0.16147521 0.032264773 -0.028912282 4290489141
0.16176257 0.033597831 -0.029149083 4290555954
0.16133331 0.034210857 -0.029673094 4290753333
0.16090406 0.034823883 -0.030197106 4290950460
0.16047482 0.03543691 -0.030721119 4290950973
0.16076832 0.036761232 -0.030950421 4290950973
0.16034029 0.037372507 -0.031472936 4291082559
0.15991227 0.037983783 -0.031995449 4291148352
0.15948425 0.038595058 -0.032517966 4291214143
0.15905625 0.03920633 -0.033040479 4291214145
0.15862823 0.039817605 -0.033562992 4291148352
0.1582002 0.040428877 -0.034085508 4291411009
0.15777218 0.041040152 -0.034608021 4291411009
0.15734416 0.041651428 -0.035130538 4291477056
0.15691614 0.042262703 -0.035653051 4291542849
0.15648814 0.042873975 -0.036175564 4291542849
0.15606011 0.04348525 -0.036698081 4291674435
0.15563209 0.044096526 -0.037220594 4291740228
0.15520407 0.044707797 -0.03774311 4291740226
0.15477605 0.045319073 -0.038265623 4291740226
0.15360689 0.04524532 -0.039105304 4291871812
0.15317765 0.045858346 -0.039629314 4292003652
0.15274841 0.046471372 -0.040153328 4292003652
0.15157437 0.046404649 -0.040998984 4291674165
0.15039785 0.046341408 -0.041847643 4291345200
0.14921892 0.046281692 -0.042699289 4290621475
0.14803752 0.04622547 -0.043553934 4290489639
0.14685364 0.046172742 -0.044411574 4290620975
0.14566734 0.046123531 -0.045272201 4290423344
0.14447857 0.046077803 -0.046135835 4290291758
0.14328736 0.046035599 -0.047002453 4289832231
0.14209367 0.045996882 -0.04787207 4289634852
0.14089756 0.045961685 -0.048744678 4289568805
0.14045605 0.046592224 -0.049283661 4289305633
0.13925624 0.046562258 -0.050160773 4288647201
0.13710539 0.074042305 -0.061012708 4282000384
0.13747612 0.075256266 -0.061147697 4282065408
0.13705178 0.075862288 -0.061665725 4281999616
0.13662744 0.076468304 -0.062183741 4281868032
0.13700308 0.077675261 -0.062312748 4282196992
0.13657996 0.078279525 -0.062829278 4282196992
0.13695931 0.079481244 -0.062953778 4282130688
0.13653742 0.080083765 -0.063468814 4282262272
0.13692042 0.081280202 -0.063588835 4282393088
0.1373059 0.082473159 -0.063705847 4282458880
0.13769381 0.083662599 -0.063819885 4282393088
0.13808419 0.084848553 -0.063930914 4282394112
0.138477 0.08603099 -0.064038955 4282591489
0.13968331 0.087795101 -0.063741505 4282722304
0.14089452 0.089552216 -0.063438058 4282853889
0.14129713 0.090720639 -0.063534126 4282919682
0.14170223 0.091885567 -0.063627191 4283248645
0.14210977 0.093046986 -0.063717261 4284102913
0.14333692 0.094781324 -0.063394368 4284232704
0.14375058 0.095933981 -0.063476957 4283903488
0.14416672 0.097083151 -0.063556537 4283969280
0.14458528 0.098228805 -0.063633144 4283969280
0.14500633 0.099370971 -0.063706748 4283837696
0.14542979 0.10050961 -0.063777365 4283640320
0.14503121 0.10107885 -0.064263947 4283771904
0.14545839 0.10221226 -0.064330056 4283904000
0.14506103 0.10277975 -0.064815141 4283706624
0.1434716 0.10504969 -0.066755481 4283640832
0.14267687 0.10618467 -0.067725651 4283904001
0.14311507 0.10730229 -0.067778304 4284036355
0.14232279 0.10843376 -0.068745479 4284366083
0.14276589 0.10954438 -0.068792142 4284563201
0.14237098 0.11010838 -0.069274232 4284694787
0.14197609 0.11067235 -0.069756322 4285088773
0.14242411 0.11177598 -0.069796979 4285351683
0.16046861 0.12784848 -0.061870787 4286271491
0.16010435 0.12836868 -0.062315449 4286796544
0.16059285 0.12941451 -0.062306698 4289688064
0.16108377 0.13045682 -0.062294971 4293437478
0.16072199 0.13097352 -0.062736638 4290213632
0.16121662 0.13201059 -0.062720403 4289620224
0.1599984 0.1320069 -0.063619971 4289422592
0.1596366 0.1325236 -0.064061642 4288438272
0.15927482 0.13304029 -0.064503312 4290283290
0.15891302 0.13355699 -0.064944975 4287256832
0.15855123 0.13407367 -0.065386638 4285809920
0.15818943 0.13459037 -0.065828308 4285152768
0.15696266 0.13459896 -0.066738345 4284692224
0.15659964 0.1351174 -0.067181505 4284626432
0.15536916 0.13513122 -0.068096049 4284495616
0.15500492 0.13565142 -0.068540707 4284298752
0.15377079 0.13567053 -0.069459729 4284298752
0.15340532 0.13619247 -0.069905885 4284298752
0.15216748 0.1362168 -0.070829406 4284101376
0.15180078 0.13674051 -0.07127706 4284233216
0.15055929 0.13677011 -0.072205052 4284036608
0.14931533 0.13680321 -0.073136069 4283576576
0.14894618 0.13733041 -0.073586717 4283576576
0.14769855 0.13736877 -0.074522205 4283314176
0.14732818 0.13789773 -0.074974351 4283841538
0.14607687 0.13794135 -0.075914323 4283448581
0.14570528 0.13847205 -0.076367967 4282065154
0.14445026 0.1385209 -0.077312455 4281407232
0.14407744 0.13905336 -0.077767596 4280881920
0.14281878 0.1391075 -0.078716561 4280422400
0.14244471 0.1396417 -0.0791732 4280686080
0.14207067 0.14017589 -0.079629831 4280620288
0.14080708 0.14023703 -0.080584802 4281277443
0.055826664 0.10643489 -0.13203156 4278453504
0.056247681 0.10757703 -0.13210517 4278453504
0.055764478 0.10826712 -0.13269506 4278519040
0.056189198 0.10940403 -0.13276416 4278649856
0.056616351 0.11053742 -0.13283028 4278781696
0.057045944 0.11166732 -0.13289343 4278781696
0.056566421 0.11235215 -0.13347882 4278781696
0.056999728 0.11347681 -0.13353744 4278782465
0.056521423 0.11415989 -0.13412134 4279306241
0.056958385 0.11527927 -0.13417549 4279372288
0.057397828 0.11639515 -0.13422662 4279636224
0.056921974 0.11707474 -0.13480753 4279832576
0.057365067 0.11818536 -0.13485418 4279766784
0.056890447 0.1188632 -0.1354336 4280095745
0.057337243 0.11996858 -0.13547575 4280226048
0.057786472 0.12107044 -0.13551493 4280160512
0.057314299 0.12174477 -0.13609134 4280225536
0.057767235 0.1228414 -0.13612601 4280948480
0.057296295 0.12351397 -0.13670093 4281540615
0.057752874 0.12460532 -0.1367311 4282066689
0.057283152 0.12527615 -0.13730453 4282524928
0.057743415 0.12636226 -0.13733023 4282656000
0.057274926 0.12703133 -0.13790216 4282656000
0.057738893 0.1281122 -0.13792336 4282656000
0.057271637 0.1287795 -0.13849378 4282656000
0.056804366 0.12944683 -0.13906421 4282656000
0.056337103 0.13011415 -0.13963464 4282656000
0.056807179 0.13118625 -0.13964836 4282656000
0.056341141 0.13185181 -0.14021729 4282656000
0.055875104 0.13251738 -0.14078622 4282656000
0.056350116 0.13358247 -0.14079392 4282656000
0.055885293 0.1342463 -0.14136137 4282656000
0.055420488 0.13491012 -0.14192879 4282656000
0.055900365 0.13596821 -0.14193055 4282656000
0.055436794 0.13663025 -0.14249647 4282656000
0.054973204 0.13729233 -0.1430624 4282656000
0.054509617 0.1379544 -0.14362834 4282656000
0.054046035 0.13861647 -0.14419426 4282656000
0.054533307 0.13966405 -0.144187 4282656000
0.054070942 0.14032437 -0.14475144 4282656000
0.053608585 0.14098468 -0.14531589 4282656000
0.053146232 0.141645 -0.14588031 4282656000
0.052683868 0.14230531 -0.14644475 4282656000
0.052221511 0.14296563 -0.14700919 4282656000
0.051759157 0.14362594 -0.14757362 4282656000
0.051296793 0.14428626 -0.14813806 4282656000
0.050834436 0.14494658 -0.14870249 4282656000
0.050372079 0.14560689 -0.14926693 4282656000
0.049909718 0.14626722 -0.14983137 4282656000
0.049447361 0.14692752 -0.1503958 4282656000
0.15608457 0.20559087 -0.09131375 4282656000
0.1557706 0.20603925 -0.09169703 4282656000
0.15545665 0.20648764 -0.092080303 4282656000
0.15514268 0.20693602 -0.092463583 4282656000
0.15482871 0.20738441 -0.092846863 4282656000
0.15451476 0.20783278 -0.093230128 4282656000
0.15420079 0.20828117 -0.093613409 4282656000
0.15388682 0.20872957 -0.093996689 4282656000
0.15357287 0.20917794 -0.094379961 4282656000
0.1532589 0.20962633 -0.094763242 4282656000
0.15396076 0.2103674 -0.094494008 4282656000
0.15364803 0.21081401 -0.094875775 4282656000
0.1533353 0.21126065 -0.095257558 4282656000
0.15302256 0.21170728 -0.095639341 4282656000
0.15270983 0.21215393 -0.096021123 4282656000
0.15341908 0.21288447 -0.095742874 4282656000
0.15279606 0.21377425 -0.096503451 4282656000
0.15351018 0.21449777 -0.096219234 4282656000
0.15319991 0.21494091 -0.096598014 4282656000
0.15391774 0.2156592 -0.096309297 4282656000
0.15433016 0.21681362 -0.096393391 4282656000
0.15371452 0.21769287 -0.097144961 4282656000
0.15340668 0.2181325 -0.097520754 4282656000
0.15309885 0.21857212 -0.097896546 4282656000
0.15279102 0.21901175 -0.098272346 4282656000
0.1533027 0.22525482 -0.099998057 4282656000
0.15299977 0.22568743 -0.10036786 4282656000
0.1537507 0.22635844 -0.10003873 4282656000
0.15344901 0.22678931 -0.10040703 4282656512
0.15314731 0.22722018 -0.10077533 4282656512
0.15390316 0.22788417 -0.10044022 4282656512
0.15360269 0.22831328 -0.10080702 4282656512
0.15330221 0.22874241 -0.10117383 4282656512
0.15406294 0.2293994 -0.10083273 4282656512
0.1537637 0.22982676 -0.10119804 4282656512
0.15346445 0.23025413 -0.10156335 4282656512
0.1542301 0.23090412 -0.10121625 4282656512
0.15393209 0.23132972 -0.10158006 4282656512
0.15470143 0.23197445 -0.10122846 4282656512
0.15440463 0.23239832 -0.10159078 4282656512
0.15517764 0.2330378 -0.1012347 4282656512
0.15488207 0.2334599 -0.10159551 4282656512
0.15458651 0.23388202 -0.10195633 4282656512
0.15429094 0.23430413 -0.10231715 4282656512
0.15507008 0.23493485 -0.10195358 4282656512
0.15477574 0.23535521 -0.1023129 4282656512
0.15555856 0.23598067 -0.10194484 4282656512
0.15526545 0.23639928 -0.10230266 4282656512
0.15605196 0.23701948 -0.10193011 4282656512
0.15576006 0.23743635 -0.10228644 4282656512
0.15546818 0.2378532 -0.10264277 4282656512
0.15625958 0.2384664 -0.10226423 4282656512
0.15596892 0.23888151 -0.10261907 4282656512
0.156764 0.23948945 -0.10223603 4282656512
0.15647458 0.23990281 -0.10258936 4282656512
0.15618514 0.24031617 -0.1029427 4282656512
0.15698513 0.2409171 -0.10255367 4282656512
0.15669693 0.2413287 -0.1029055 4282656512
0.15750059 0.24192441 -0.10251199 4282656512
0.15721361 0.24233425 -0.10286232 4282656512
0.15692663 0.24274409 -0.10321266 4282656512
0.15663965 0.24315396 -0.10356301 4282656512
0.15635267 0.2435638 -0.10391334 4282656512
0.15716369 0.24414898 -0.10351085 4282656512
0.15687795 0.24455708 -0.10385969 4282656512
0.16223434 0.025950305 -0.027350841 4286212625
0.16180019 0.026570337 -0.027880842 4286278416
0.16207686 0.027918633 -0.028127484 4286410002
0.16192429 0.029879959 -0.028898133 4287197971
0.16220711 0.031219518 -0.029137284 4288250659
0.16177665 0.031834297 -0.029662794 4290291776
0.16206312 0.033168584 -0.029897451 4290556215
0.16163388 0.03378161 -0.030421464 4290621745
0.16120464 0.034394637 -0.030945476 4290950712
0.16077538 0.035007659 -0.031469487 4290885178
0.16106802 0.036333211 -0.031696655 4290950971
0.16064 0.036944486 -0.032219168 4291016766
0.16021198 0.037555762 -0.032741684 4291082557
0.15978396 0.038167033 -0.033264197 4291148350
0.15935594 0.038778309 -0.03378671 4291082557
0.15892793 0.03938958 -0.034309227 4291148350
0.15849991 0.040000856 -0.03483174 4291279677
0.15807189 0.040612131 -0.035354257 4291411263
0.15764387 0.041223407 -0.03587677 4291411263
0.15721585 0.041834679 -0.036399286 4291542847
0.15678783 0.042445954 -0.036921799 4291542847
0.15635981 0.043057229 -0.037444312 4291674433
0.1559318 0.043668501 -0.037966829 4291674181
0.15550378 0.044279777 -0.038489342 4291740228
0.15507576 0.044891052 -0.039011858 4291740226
0.15464774 0.045502324 -0.039534371 4291740226
0.15421972 0.046113599 -0.040056884 4291937605
0.15304898 0.046042126 -0.040901698 4292068675
0.15187579 0.045974173 -0.041749496 4291739960
0.15070014 0.045909707 -0.042600289 4291674167
0.14952205 0.045848761 -0.043454077 4290753581
0.14834152 0.045791321 -0.044310853 4290358573
0.14790736 0.04641135 -0.044840854 4290490161
0.14597306 0.045686923 -0.046033405 4290358323
0.14478514 0.045639973 -0.04689917 4290292530
0.14359479 0.04559654 -0.04776793 4289832492
0.14240196 0.045556594 -0.048639692 4289635111
0.14196168 0.046185385 -0.049177177 4289700391
0.14076521 0.046150714 -0.050053418 4289503012
0.1403237 0.046781249 -0.0505924 4288975650
0.13988218 0.047411796 -0.051131383 4283451393
0.13856868 0.075439334 -0.061500855 4282065408
0.13814558 0.076043606 -0.062017381 4282065408
0.13772246 0.07664787 -0.062533908 4282065408
0.13809849 0.07785432 -0.062659264 4282131200
0.13767661 0.078456841 -0.063174292 4282196992
0.13805629 0.079658009 -0.063295178 4282131200
0.13843846 0.080855697 -0.063413046 4282393088
0.13801903 0.081454717 -0.06392508 4282458880
0.13840485 0.08264713 -0.06403847 4282393088
0.13879314 0.083836056 -0.064148866 4282524928
0.13999158 0.085611366 -0.063854627 4282524928
0.140386 0.086791545 -0.063957527 4282657282
0.14159304 0.088554613 -0.063652799 4282788096
0.142805 0.09031067 -0.063342094 4282985473
0.1432092 0.091476813 -0.063433029 4282985473
0.14442974 0.093220614 -0.063111834 4283248131
0.14484009 0.094378002 -0.063195281 4283707651
0.14525291 0.095531903 -0.063275732 4283707392
0.14648572 0.09725818 -0.062939562 4283706624
0.14690465 0.098403312 -0.063012525 4283706624
0.14650606 0.098972552 -0.063499108 4283772416
0.1469287 0.10011244 -0.063567579 4283640832
0.14735377 0.1012488 -0.063633062 4283377664
0.14383222 0.10802151 -0.068516463 4284759298
0.14343733 0.10858549 -0.068998553 4284825089
0.16181639 0.12592365 -0.061171848 4286007040
0.16229911 0.12697771 -0.061166953 4286270209
0.1619361 0.12749615 -0.061610118 4286599938
0.16157308 0.12801459 -0.062053282 4287059200
0.16169889 0.12957834 -0.062484071 4294950710
0.16219021 0.13062014 -0.062468696 4290278144
0.16182965 0.13113508 -0.062908873 4290475520
0.16146909 0.13165002 -0.063349038 4289883648
0.16110852 0.13216496 -0.063789204 4289292288
0.16074795 0.13267991 -0.064229377 4292255015
0.16038738 0.13319485 -0.064669549 4286860288
0.16002682 0.13370979 -0.065109722 4286399744
0.15880455 0.13371187 -0.066017412 4285349376
0.15844277 0.13422857 -0.066459075 4284955136
0.15808097 0.13474527 -0.066900745 4284495616
0.15685384 0.13475437 -0.067814417 4284627200
0.15649082 0.13527283 -0.068257578 4284298752
0.15525997 0.13528718 -0.069175757 4284167680
0.15489572 0.13580737 -0.069620416 4284101888
0.15366122 0.13582699 -0.070543066 4284101632
0.15329576 0.13634895 -0.070989221 4283970048
0.15205754 0.1363738 -0.071916386 4283904256
0.15081692 0.13640217 -0.072846517 4283970048
0.1495738 0.13643405 -0.073779665 4283773440
0.14920466 0.13696125 -0.074230313 4283641856
0.14795791 0.13699839 -0.075167939 4283773952
0.14758752 0.13752735 -0.075620092 4283579648
0.14633708 0.13756974 -0.076562203 4282921733
0.14508416 0.13761562 -0.077507325 4281342464
0.14471133 0.13814807 -0.077962466 4281013504
0.14345476 0.13819921 -0.078912072 4280488192
0.1430807 0.13873343 -0.079368711 4280422912
0.14182042 0.13878982 -0.080322817 4280685568
0.14144513 0.13932578 -0.080780953 4280685568
0.14106984 0.13986175 -0.081239089 4280817154
0.056586027 0.10709383 -0.13294761 4278453505
0.057008665 0.10823371 -0.13301608 4278519298
0.057433728 0.10937009 -0.13308157 4278519552
0.056952979 0.11005667 -0.13366845 4278650880
0.057381716 0.11118779 -0.13372946 4278781184
0.056902193 0.11187262 -0.13431485 4278715392
0.057334639 0.1129985 -0.13437134 4278848258
0.056856334 0.11368158 -0.13495524 4278979072
0.057292439 0.11480219 -0.13500725 4279175168
0.057731025 0.1159193 -0.13505624 4279699968
0.057255171 0.11659889 -0.13563715 4279701504
0.057697408 0.11771074 -0.13568167 4279635712
0.057222787 0.11838856 -0.13626109 4279570432
0.057668723 0.11949518 -0.1363011 4279833600
0.058117095 0.12059826 -0.13633814 4280424960
0.057644922 0.12127259 -0.13691455 4280686336
0.058096994 0.12237044 -0.1369471 4280882688
0.057626054 0.12304302 -0.137522 4280816896
0.058081776 0.1241356 -0.13755004 4281079296
0.057612054 0.12480643 -0.13812347 4281013504
0.058071461 0.12589376 -0.13814704 4281078784
0.057602972 0.12656283 -0.13871895 4281473537
0.058066074 0.12764493 -0.13873802 4281473537
0.057598818 0.12831225 -0.13930842 4281473537
0.057131547 0.12897956 -0.13987887 4281473537
0.056664284 0.1296469 -0.14044929 4281473537
0.057133503 0.1307202 -0.14046088 4281473537
0.056667466 0.13138577 -0.1410298 4281473537
0.056201424 0.13205135 -0.14159873 4281473537
0.056675579 0.13311766 -0.1416043 4281473537
0.05621076 0.13378149 -0.14217174 4281473537
0.055745952 0.13444531 -0.14273916 4281473537
