# .PCD v0.7 - Point Cloud Data file format
VERSION 0.7
FIELDS x y z rgb
SIZE 4 4 4 4
TYPE F F F U
COUNT 1 1 1 1
WIDTH 991
HEIGHT 1
VIEWPOINT 0 0 0 1 0 0 0
POINTS 991
DATA ascii
-0.14299999 0.062521711 -0.032978795 4279698432
-0.14299999 0.061889272 -0.032978795 4279567616
-0.14299999 0.061256822 -0.032978795 4279634176
-0.14299999 0.06062438 -0.032978795 4279962880
-0.14299999 0.059991941 -0.032978795 4280620808
-0.14299999 0.059359498 -0.032978795 4281477898
-0.14299999 0.058727052 -0.032978795 4280754179
-0.14299999 0.05809461 -0.032978795 4279766016
-0.14299999 0.057462167 -0.032978795 4279634432
-0.14299999 0.056829721 -0.032978795 4279897600
-0.14299999 0.056197278 -0.032978795 4280883458
-0.14299999 0.055564836 -0.032978795 4281015296
-0.14199999 0.0538886 -0.033524416 4280554752
-0.14199999 0.053253576 -0.033524416 4280881664
-0.14199999 0.052618548 -0.033524416 4280816896
-0.14199999 0.051983524 -0.033524416 4280422912
-0.14299999 0.051137734 -0.032978795 4280357120
-0.14199999 0.050713476 -0.033524416 4280422912
-0.14199999 0.050078448 -0.033524416 4280752128
-0.14199999 0.049443424 -0.033524416 4280620544
-0.14199999 0.044998251 -0.033524416 4279044352
-0.14299999 0.044180855 -0.032978795 4279109376
-0.14299999 0.043548413 -0.032978795 4279109376
-0.14299999 0.042915974 -0.032978795 4279109376
-0.14299999 0.042283528 -0.032978795 4279175168
-0.14299999 0.041651085 -0.032978795 4279306240
-0.14199999 0.041188106 -0.033524416 4279306240
-0.14199999 0.040553082 -0.033524416 4278977792
-0.14299999 0.039753754 -0.032978795 4278781184
-0.14199999 0.03928303 -0.033524416 4278846976
-0.14199999 0.038648006 -0.033524416 4278781696
-0.14199999 0.038012981 -0.033524416 4278913280
-0.14199999 0.037377957 -0.033524416 4278781184
-0.14199999 0.036742933 -0.033524416 4278846976
-0.14199999 0.036107909 -0.033524416 4279044352
-0.14199999 0.035472885 -0.033524416 4280162052
-0.14199999 0.034837857 -0.033524416 4281016064
-0.14199999 0.034202833 -0.033524416 4282066688
-0.14099999 0.033706296 -0.034070052 4282132480
-0.14099999 0.03306869 -0.034070052 4282329600
-0.14099999 0.032431081 -0.034070052 4282198016
-0.14099999 0.031793475 -0.034070052 4282198016
-0.14099999 0.031155875 -0.034070052 4282395392
-0.14099999 0.030518269 -0.034070052 4282198016
-0.14099999 0.029880662 -0.034070052 4282198016
-0.14099999 0.029243056 -0.034070052 4282132224
-0.14199999 0.028487613 -0.033524416 4282329600
-0.14199999 0.027852587 -0.033524416 4281804551
-0.14199999 0.027217565 -0.033524416 4280291328
-0.14199999 0.026582539 -0.033524416 4278846464
-0.14199999 0.025947515 -0.033524416 4278519296
-0.14199999 0.025312489 -0.033524416 4278453504
-0.14199999 0.024677465 -0.033524416 4278584320
-0.14199999 0.024042441 -0.033524416 4278584320
-0.14199999 0.023407416 -0.033524416 4278322176
-0.14199999 0.02277239 -0.033524416 4278191104
-0.14199999 0.022137366 -0.033524416 4278387712
-0.14199999 0.021502344 -0.033524416 4278387712
-0.14199999 0.020867318 -0.033524416 4278321920
-0.14199999 0.020232294 -0.033524416 4278387712
-0.14199999 0.019597268 -0.033524416 4278387968
-0.14199999 0.018962244 -0.033524416 4278387968
-0.14199999 0.018327219 -0.033524416 4278322176
-0.14199999 0.017692195 -0.033524416 4278387968
-0.14199999 0.017057169 -0.033524416 4278387968
-0.14199999 0.016422145 -0.033524416 4278453504
-0.14199999 0.015787119 -0.033524416 4278453504
-0.14199999 0.015152096 -0.033524416 4278453504
-0.14199999 0.01451707 -0.033524416 4278453504
-0.14199999 0.013882045 -0.033524416 4278519296
-0.14199999 0.013247021 -0.033524416 4278453504
-0.14099999 0.012665297 -0.034070052 4278519296
-0.14199999 0.011976971 -0.033524416 4278519296
-0.14199999 0.011341946 -0.033524416 4278387968
-0.14099999 0.010752478 -0.034070052 4278257152
-0.14099999 0.010114873 -0.034070052 4278322944
-0.14099999 0.0094772661 -0.034070052 4278322944
-0.14099999 0.0088396603 -0.034070052 4278322944
-0.14099999 0.0082020536 -0.034070052 4278453760
-0.14099999 0.0075644488 -0.034070052 4278519296
-0.14099999 0.006926842 -0.034070052 4278519296
-0.14099999 0.0062892358 -0.034070052 4278519296
-0.14099999 0.00565163 -0.034070052 4278519296
-0.14099999 0.0050140237 -0.034070052 4278585088
-0.14099999 0.004376418 -0.034070052 4278585088
-0.14099999 0.0037388117 -0.034070052 4278519296
-0.14099999 0.0031012057 -0.034070052 4278519296
-0.14099999 0.0024635997 -0.034070052 4278519296
-0.14099999 0.0018259935 -0.034070052 4278519296
-0.14099999 0.0011883875 -0.034070052 4278585088
-0.14099999 0.00055078132 -0.034070052 4278650112
-0.14099999 -8.6824737e-05 -0.034070052 4278650112
-0.14099999 -0.00072443078 -0.034070052 4278650112
-0.14099999 -0.0013620369 -0.034070052 4278453504
-0.14099999 -0.0019996429 -0.034070052 4278585088
-0.043999989 -0.01058059 -0.086995937 4278519296
-0.043999989 -0.011468591 -0.086995937 4278519296
-0.043999989 -0.012356593 -0.086995937 4278650112
-0.043999989 -0.013244594 -0.086995937 4278650112
-0.043999989 -0.014132597 -0.086995937 4278715392
-0.043999989 -0.0150206 -0.086995937 4278715392
-0.043999989 -0.015908601 -0.086995937 4278715392
-0.043999989 -0.016796602 -0.086995937 4278519296
-0.043999989 -0.017684605 -0.086995937 4278453504
-0.043999989 -0.018572606 -0.086995937 4278387968
-0.043999989 -0.019460607 -0.086995937 4278519552
-0.043999989 -0.02034861 -0.086995937 4278519552
-0.044999976 -0.021176333 -0.086450316 4278519296
-0.044999976 -0.022061754 -0.086450316 4278453504
-0.044999976 -0.022947174 -0.086450316 4278519296
-0.044999976 -0.023832593 -0.086450316 4278519296
-0.044999976 -0.024718015 -0.086450316 4278519296
-0.044999976 -0.025603436 -0.086450316 4278453504
-0.044999976 -0.026488855 -0.086450316 4278387712
-0.044999976 -0.027374277 -0.086450316 4278387456
-0.043999989 -0.028340628 -0.086995937 4278387712
-0.043999989 -0.029228631 -0.086995937 4278321920
-0.043999989 -0.030116633 -0.086995937 4278453504
-0.043999989 -0.031004634 -0.086995937 4278387968
-0.042999972 -0.031983897 -0.087541573 4278322176
-0.042999972 -0.03287448 -0.087541573 4278387968
-0.042999972 -0.033765066 -0.087541573 4278387968
-0.042999972 -0.034655645 -0.087541573 4278387968
-0.042999972 -0.035546232 -0.087541573 4278453504
-0.042999972 -0.036436815 -0.087541573 4278650112
-0.041999985 -0.037434142 -0.088087194 4278979072
-0.14999999 -0.053552371 -0.029159402 4288249374
-0.14999999 -0.054166745 -0.029159402 4288183833
-0.15099998 -0.054553047 -0.028613782 4287723802
-0.15199998 -0.054934189 -0.028068146 4287526175
-0.15199998 -0.055543397 -0.028068146 4287197210
-0.15199998 -0.056152608 -0.028068146 4287394337
-0.15299998 -0.056523424 -0.027522525 4287788841
-0.15299998 -0.057130054 -0.027522525 4287788843
-0.15399998 -0.05749312 -0.026976889 4288118058
-0.15399998 -0.058097165 -0.026976889 4288249376
-0.15499999 -0.058452491 -0.026431268 4288315169
-0.15499999 -0.059053961 -0.026431268 4289564453
-0.15599999 -0.059401538 -0.025885632 4289633326
-0.15599999 -0.060000427 -0.025885632 4289438015
-0.15699999 -0.060340259 -0.025340011 4288848472
-0.15699999 -0.060936559 -0.025340011 4286352994
-0.15799999 -0.061268654 -0.024794376 4284510790
-0.15799999 -0.061862376 -0.024794376 4280238881
-0.15799999 -0.062456101 -0.024794376 4278593823
-0.15899998 -0.062777862 -0.024248755 4278264356
-0.15899998 -0.063369013 -0.024248755 4278196511
-0.15999998 -0.063683033 -0.023703126 4278196511
-0.15999998 -0.064271592 -0.023703126 4278196768
-0.15999998 -0.06486015 -0.023703126 4278195744
-0.16099998 -0.065163843 -0.023157498 4278195748
-0.16099998 -0.065749824 -0.023157498 4278195748
-0.16099998 -0.066335797 -0.023157498 4278196005
-0.16099998 -0.066921785 -0.023157498 4278196005
-0.16199999 -0.067212567 -0.022611869 4278195744
-0.16199999 -0.06779597 -0.022611869 4278195744
-0.16199999 -0.068379365 -0.022611869 4278261024
-0.16199999 -0.06896276 -0.022611869 4278196512
-0.16199999 -0.069546156 -0.022611869 4278196001
-0.16199999 -0.070129551 -0.022611869 4278196258
-0.16199999 -0.070712954 -0.022611869 4278196511
-0.16199999 -0.071296342 -0.022611869 4278197020
-0.16199999 -0.071879745 -0.022611869 4278327582
-0.16199999 -0.07246314 -0.022611869 4278523678
-0.16199999 -0.073046535 -0.022611869 4278523678
-0.16199999 -0.073629931 -0.022611869 4278459168
-0.16199999 -0.074213333 -0.022611869 4278393627
-0.16199999 -0.074796729 -0.022611869 4278591004
-0.16199999 -0.075380117 -0.022611869 4278458907
-0.16099998 -0.076297432 -0.023157498 4278524700
-0.16099998 -0.076883405 -0.023157498 4278787874
-0.16099998 -0.077469386 -0.023157498 4278853665
-0.16099998 -0.078055359 -0.023157498 4278788383
-0.16099998 -0.078641348 -0.023157498 4278722590
-0.16099998 -0.079227321 -0.023157498 4278919710
-0.16099998 -0.079813302 -0.023157498 4278853917
-0.15999998 -0.080751255 -0.023703126 4278788124
-0.15999998 -0.081339814 -0.023703126 4278524950
-0.15999998 -0.081928372 -0.023703126 4278524950
-0.15999998 -0.082516931 -0.023703126 4279116055
-0.15899998 -0.083467804 -0.024248755 4279444248
-0.15899998 -0.08405894 -0.024248755 4279575322
-0.15799999 -0.085017547 -0.024794376 4279641115
-0.15799999 -0.085611269 -0.024794376 4279772186
-0.15699999 -0.086577624 -0.025340011 4279772186
-0.15699999 -0.087173924 -0.025340011 4279772699
-0.15599999 -0.08814802 -0.025885632 4279772699
-0.15499999 -0.08912728 -0.026431268 4279508246
-0.15499999 -0.089728743 -0.026431268 4279376409
-0.15399998 -0.090715751 -0.026976889 4279442200
-0.15399998 -0.091319799 -0.026976889 4279376407
-0.15299998 -0.092314549 -0.027522525 4279049239
-0.15299998 -0.092921175 -0.027522525 4279509016
-0.15199998 -0.093923673 -0.028068146 4280889634
-0.15199998 -0.094532885 -0.028068146 4280955427
-0.15099998 -0.095543116 -0.028613782 4281546276
-0.14999999 -0.096558511 -0.029159402 4281677855
-0.14899999 -0.097579077 -0.029705023 4282005019
-0.14899999 -0.09819603 -0.029705023 4282202398
-0.14799999 -0.099224336 -0.030250659 4282859553
-0.14699998 -0.10087992 -0.03079628 4283123229
-0.14699998 -0.10150205 -0.03079628 4283057436
-0.14599998 -0.10254584 -0.031341918 4282133262
0.11500002 -0.23078175 -0.17375074 4284436239
0.11600001 -0.23254059 -0.17429636 4284304653
0.11500002 -0.23337865 -0.17375074 4283779079
0.11400004 -0.23421155 -0.17320512 4283516423
0.11400004 -0.2355074 -0.17320512 4283516423
0.11400004 -0.23680326 -0.17320512 4283516423
0.11400004 -0.23809913 -0.17320512 4283516423
0.11400004 -0.23939498 -0.17320512 4283516423
0.11400004 -0.24069086 -0.17320512 4283516423
0.11400004 -0.24198671 -0.17320512 4283516423
0.11300005 -0.24279895 -0.1726595 4283516423
0.112 -0.243606 -0.17211385 4283516423
0.112 -0.24489671 -0.17211385 4283516423
0.112 -0.2461874 -0.17211385 4283516423
0.117 -0.24994788 -0.17484199 4283516423
0.11900003 -0.25224459 -0.17593326 4283516423
0.12100001 -0.25455156 -0.1770245 4283516423
0.12400003 -0.25737062 -0.17866139 4283516423
0.12500001 -0.25919658 -0.17920701 4283516423
0.12700005 -0.26153457 -0.18029828 4283516423
0.12900002 -0.26388288 -0.18138953 4283516423
0.13000001 -0.26572946 -0.18193515 4283516423
0.12900002 -0.26655203 -0.18138953 4283516423
0.13000001 -0.26840383 -0.18193515 4283516423
0.12900002 -0.26922119 -0.18138953 4283516423
0.12800004 -0.27003345 -0.1808439 4283516423
0.12700005 -0.27084053 -0.18029828 4283516423
0.12500001 -0.27111492 -0.17920701 4283516423
0.12700005 -0.27349937 -0.18029828 4283516423
0.13100006 -0.27695951 -0.1824808 4283516423
0.12100001 -0.27557451 -0.1770245 4283516423
0.12200005 -0.27743146 -0.17757015 4283516423
0.12200005 -0.27874801 -0.17757015 4283516423
0.12400003 -0.2811608 -0.17866139 4283516423
0.126 -0.28358397 -0.17975263 4283516423
0.12700005 -0.28546417 -0.18029828 4283516423
0.12800004 -0.28734949 -0.1808439 4283516423
0.12800004 -0.28868148 -0.1808439 4283516423
0.12700005 -0.28945243 -0.18029828 4283516423
0.12700005 -0.29078186 -0.18029828 4283516423
0.126 -0.291545 -0.17975263 4283516423
0.12500001 -0.29230303 -0.17920701 4283516423
0.12300004 -0.29248452 -0.17811577 4283516423
0.12000002 -0.29863843 -0.17647888 4283516423
-0.14299999 0.073905692 -0.033611245 4280287744
-0.14299999 0.073273249 -0.033611245 4280353536
-0.14299999 0.072640799 -0.033611245 4280156928
-0.14399998 0.071712412 -0.033063032 4280156928
-0.14399998 0.071082547 -0.033063032 4280025856
-0.14399998 0.07045269 -0.033063032 4280091648
-0.14399998 0.069822825 -0.033063032 4280025856
-0.14399998 0.069192968 -0.033063032 4280091136
-0.14399998 0.068563104 -0.033063032 4280156928
-0.14399998 0.067933239 -0.033063032 4280156928
-0.14399998 0.067303382 -0.033063032 4280091136
-0.14399998 0.066673517 -0.033063032 4280091136
-0.14399998 0.06604366 -0.033063032 4280156928
-0.14399998 0.065413788 -0.033063032 4280156928
-0.14399998 0.064783931 -0.033063032 4280025856
-0.14399998 0.064154066 -0.033063032 4279698176
-0.14399998 0.063524209 -0.033063032 4279632640
-0.14399998 0.062894352 -0.033063032 4279632640
-0.14399998 0.06226448 -0.033063032 4279698432
-0.14399998 0.061634626 -0.033063032 4279567616
-0.14399998 0.061004758 -0.033063032 4279634176
-0.14399998 0.060374897 -0.033063032 4279962880
-0.14399998 0.059745036 -0.033063032 4280620808
-0.14399998 0.059115175 -0.033063032 4281477898
-0.14399998 0.058485314 -0.033063032 4280754179
-0.14399998 0.05785545 -0.033063032 4279766016
-0.14399998 0.057225589 -0.033063032 4279634432
-0.14399998 0.056595728 -0.033063032 4279897600
-0.14399998 0.052816555 -0.033063032 4280881664
-0.14399998 0.052186694 -0.033063032 4280816896
-0.14399998 0.051556833 -0.033063032 4280422912
-0.14399998 0.050926968 -0.033063032 4280357120
-0.14399998 0.050297108 -0.033063032 4280422912
-0.14399998 0.049667243 -0.033063032 4280817920
-0.14399998 0.049037382 -0.033063032 4280620544
-0.14399998 0.045258213 -0.033063032 4279044352
-0.14399998 0.044628348 -0.033063032 4279044352
-0.14399998 0.043998487 -0.033063032 4279109376
-0.14399998 0.043368626 -0.033063032 4279109376
-0.14399998 0.042738765 -0.033063032 4279109376
-0.14399998 0.042108905 -0.033063032 4279306240
-0.14399998 0.041479044 -0.033063032 4279306240
-0.14399998 0.040849179 -0.033063032 4279174656
-0.14399998 0.040219318 -0.033063032 4278977792
-0.14399998 0.039589453 -0.033063032 4278781184
-0.14399998 0.038959593 -0.033063032 4278846976
-0.14399998 0.038329732 -0.033063032 4278781696
-0.14299999 0.037856422 -0.033611245 4278913280
-0.14299999 0.037223984 -0.033611245 4278781184
-0.14299999 0.036591541 -0.033611245 4278846976
-0.14299999 0.035959095 -0.033611245 4279044352
-0.14299999 0.035326652 -0.033611245 4280162052
-0.14299999 0.03469421 -0.033611245 4281016064
-0.14299999 0.034061763 -0.033611245 4282066688
-0.14299999 0.033429321 -0.033611245 4282395393
-0.14299999 0.032796878 -0.033611245 4282329600
-0.14199999 0.032297757 -0.034159444 4282066432
-0.14199999 0.031662732 -0.034159444 4282198016
-0.14199999 0.031027714 -0.034159444 4282395392
-0.14199999 0.030392688 -0.034159444 4282198016
-0.14199999 0.029757664 -0.034159444 4282198016
-0.14299999 0.029002221 -0.033611245 4282329600
-0.14299999 0.028369777 -0.033611245 4282329600
-0.14299999 0.027737334 -0.033611245 4281804551
-0.14299999 0.027104892 -0.033611245 4280291328
-0.14399998 0.026362358 -0.033063032 4278846464
-0.14399998 0.025732495 -0.033063032 4278453504
-0.14299999 0.025207561 -0.033611245 4278453504
-0.14299999 0.024575118 -0.033611245 4278584320
-0.14299999 0.023942675 -0.033611245 4278584320
-0.14299999 0.023310231 -0.033611245 4278322176
-0.14299999 0.022677789 -0.033611245 4278191104
-0.14299999 0.022045344 -0.033611245 4278387712
-0.14299999 0.021412902 -0.033611245 4278387712
-0.14299999 0.020780459 -0.033611245 4278321920
-0.14299999 0.020148015 -0.033611245 4278387712
-0.14299999 0.019515572 -0.033611245 4278387968
-0.14399998 0.018804014 -0.033063032 4278387968
-0.14299999 0.018250685 -0.033611245 4278322176
-0.14299999 0.017618243 -0.033611245 4278387968
-0.14299999 0.016985798 -0.033611245 4278322176
-0.14299999 0.016353356 -0.033611245 4278453504
-0.14299999 0.015720911 -0.033611245 4278453504
-0.14299999 0.015088469 -0.033611245 4278453504
-0.14299999 0.014456024 -0.033611245 4278453504
-0.14199999 0.013882045 -0.034159444 4278519296
-0.14199999 0.013247021 -0.034159444 4278453504
-0.14199999 0.012611995 -0.034159444 4278519296
-0.14199999 0.011976971 -0.034159444 4278519296
-0.14199999 0.011341946 -0.034159444 4278387968
-0.14199999 0.010706921 -0.034159444 4278257152
-0.14199999 0.010071897 -0.034159444 4278322944
-0.14199999 0.0094368719 -0.034159444 4278322944
-0.14199999 0.0088018477 -0.034159444 4278322944
-0.14199999 0.0081668226 -0.034159444 4278453760
-0.14199999 0.0075317984 -0.034159444 4278519296
-0.14199999 0.0068967738 -0.034159444 4278519296
-0.14199999 0.0062617492 -0.034159444 4278519296
-0.14199999 0.0056267246 -0.034159444 4278519296
-0.14199999 0.0049916999 -0.034159444 4278585088
-0.14199999 0.0043566753 -0.034159444 4278585088
-0.14199999 0.0037216507 -0.034159444 4278519296
-0.14199999 0.0030866258 -0.034159444 4278519296
-0.14199999 0.0024516012 -0.034159444 4278519296
-0.14199999 0.0018165765 -0.034159444 4278519296
-0.14199999 0.001181552 -0.034159444 4278585088
-0.14199999 0.00054652715 -0.034159444 4278650112
-0.14199999 -8.8497509e-05 -0.034159444 4278650112
-0.14199999 -0.00072352216 -0.034159444 4278650112
-0.14199999 -0.0013585469 -0.034159444 4278453504
-0.14299999 -0.0019875001 -0.033611245 4278585088
-0.043999989 -0.01058059 -0.087883942 4278519296
-0.043999989 -0.011468591 -0.087883942 4278519296
-0.043999989 -0.012356593 -0.087883942 4278650112
-0.043999989 -0.013244594 -0.087883942 4278650112
-0.043999989 -0.014132597 -0.087883942 4278715392
-0.043999989 -0.0150206 -0.087883942 4278715392
-0.043999989 -0.015908601 -0.087883942 4278715392
-0.043999989 -0.016796602 -0.087883942 4278519296
-0.043999989 -0.017684605 -0.087883942 4278453504
-0.043999989 -0.018572606 -0.087883942 4278387968
-0.043999989 -0.019460607 -0.087883942 4278519552
-0.044999976 -0.020290911 -0.087335743 4278519552
-0.044999976 -0.021176333 -0.087335743 4278519296
-0.044999976 -0.022061754 -0.087335743 4278453504
-0.044999976 -0.022947174 -0.087335743 4278519296
-0.044999976 -0.023832593 -0.087335743 4278519296
-0.044999976 -0.024718015 -0.087335743 4278519296
-0.044999976 -0.025603436 -0.087335743 4278453504
-0.044999976 -0.026488855 -0.087335743 4278387712
-0.044999976 -0.027374277 -0.087335743 4278387456
-0.043999989 -0.028340628 -0.087883942 4278387456
-0.043999989 -0.029228631 -0.087883942 4278321920
-0.043999989 -0.030116633 -0.087883942 4278453504
-0.043999989 -0.031004634 -0.087883942 4278387968
-0.043999989 -0.031892639 -0.087883942 4278322176
-0.042999972 -0.03287448 -0.08843217 4278387968
-0.042999972 -0.033765066 -0.08843217 4278387968
-0.042999972 -0.035546232 -0.08843217 4278453504
-0.042999972 -0.036436815 -0.08843217 4278650112
-0.042999972 -0.037327398 -0.08843217 4278979072
-0.15099998 -0.053941257 -0.029225579 4288183833
-0.15099998 -0.054553047 -0.029225579 4287723802
-0.15199998 -0.054934189 -0.028677365 4287526175
-0.15199998 -0.055543397 -0.028677365 4287197210
-0.15199998 -0.056152608 -0.028677365 4287394337
-0.15299998 -0.056523424 -0.028129151 4287788841
-0.15299998 -0.057130054 -0.028129151 4287788843
-0.15399998 -0.05749312 -0.027580937 4288118058
-0.15399998 -0.058097165 -0.027580937 4288249376
-0.15499999 -0.058452491 -0.027032739 4288315169
-0.15499999 -0.059053961 -0.027032739 4289564453
-0.15599999 -0.059401538 -0.026484525 4289633326
-0.15599999 -0.060000427 -0.026484525 4289438015
-0.15699999 -0.060340259 -0.025936311 4288848472
-0.15699999 -0.060936559 -0.025936311 4286352994
-0.15799999 -0.061268654 -0.025388097 4284510790
-0.15799999 -0.061862376 -0.025388097 4280238881
-0.15799999 -0.062456101 -0.025388097 4278593823
-0.15899998 -0.062777862 -0.024839899 4278264356
-0.15899998 -0.063369013 -0.024839899 4278196511
-0.15999998 -0.063683033 -0.024291692 4278196511
-0.15999998 -0.064271592 -0.024291692 4278196768
-0.15999998 -0.06486015 -0.024291692 4278195744
-0.16099998 -0.065163843 -0.023743479 4278195748
-0.16099998 -0.065749824 -0.023743479 4278195748
-0.16099998 -0.066335797 -0.023743479 4278196005
-0.16099998 -0.066921785 -0.023743479 4278196005
-0.16199999 -0.067212567 -0.023195272 4278195744
-0.16199999 -0.06779597 -0.023195272 4278195744
-0.16199999 -0.068379365 -0.023195272 4278261024
-0.16199999 -0.06896276 -0.023195272 4278196512
-0.16199999 -0.069546156 -0.023195272 4278196001
-0.16199999 -0.070129551 -0.023195272 4278196258
-0.16199999 -0.070712954 -0.023195272 4278196511
-0.16199999 -0.071296342 -0.023195272 4278197020
-0.16199999 -0.071879745 -0.023195272 4278327582
-0.16199999 -0.07246314 -0.023195272 4278523678
-0.16199999 -0.073046535 -0.023195272 4278523678
-0.16199999 -0.073629931 -0.023195272 4278459168
-0.16199999 -0.074213333 -0.023195272 4278393627
-0.16199999 -0.074796729 -0.023195272 4278591004
-0.16099998 -0.075711451 -0.023743479 4278459418
-0.16099998 -0.076883405 -0.023743479 4278787874
-0.16099998 -0.077469386 -0.023743479 4278853665
-0.16099998 -0.078055359 -0.023743479 4278788383
-0.16099998 -0.078641348 -0.023743479 4278722590
-0.16099998 -0.079227321 -0.023743479 4278919710
-0.16099998 -0.079813302 -0.023743479 4278853917
-0.15999998 -0.080751255 -0.024291692 4278788124
-0.15999998 -0.081339814 -0.024291692 4278524950
-0.15999998 -0.081928372 -0.024291692 4278524950
-0.15999998 -0.082516931 -0.024291692 4279116055
-0.15899998 -0.083467804 -0.024839899 4279444248
-0.15899998 -0.08405894 -0.024839899 4279575322
-0.15799999 -0.085017547 -0.025388097 4279641115
-0.15799999 -0.085611269 -0.025388097 4279772186
-0.15699999 -0.086577624 -0.025936311 4279772186
-0.15699999 -0.087173924 -0.025936311 4279772699
-0.15599999 -0.08814802 -0.026484525 4279772699
-0.15499999 -0.08912728 -0.027032739 4279508246
-0.15499999 -0.089728743 -0.027032739 4279376409
-0.15399998 -0.090715751 -0.027580937 4279442200
-0.15399998 -0.091319799 -0.027580937 4279376407
-0.15299998 -0.092314549 -0.028129151 4279049239
-0.15299998 -0.092921175 -0.028129151 4279509016
-0.15199998 -0.093923673 -0.028677365 4280889634
-0.15199998 -0.094532885 -0.028677365 4280955427
-0.15099998 -0.095543116 -0.029225579 4281546276
-0.14999999 -0.096558511 -0.029773777 4281677855
-0.14899999 -0.097579077 -0.030321991 4282005019
-0.14899999 -0.09819603 -0.030321991 4282202398
-0.14799999 -0.099224336 -0.03087019 4282859553
-0.14699998 -0.10025781 -0.031418405 4282991389
-0.14699998 -0.10150205 -0.031418405 4283057436
-0.14599998 -0.10254584 -0.031966619 4282133262
0.11000003 -0.22849268 -0.17230816 4284436239
0.10900001 -0.22931781 -0.17175995 4284304653
0.10800003 -0.2301378 -0.17121173 4283779079
0.10700004 -0.23095262 -0.17066352 4283516423
0.10600002 -0.23176226 -0.17011531 4283516423
0.10600002 -0.23303746 -0.17011531 4283516423
0.10600002 -0.23431268 -0.17011531 4283516423
0.10600002 -0.23813832 -0.17011531 4283516423
0.10600002 -0.23941353 -0.17011531 4283516423
0.10600002 -0.24196395 -0.17011531 4283516423
0.10600002 -0.24323916 -0.17011531 4283516423
0.10500003 -0.24402042 -0.16956712 4283516423
0.10400002 -0.24479651 -0.16901888 4283516423
0.10500003 -0.24656568 -0.16956712 4283516423
0.082000032 -0.23872572 -0.1569583 4283516423
0.11400004 -0.27308744 -0.17450099 4283516423
0.11600001 -0.27547446 -0.17559741 4283516423
0.11800005 -0.27787182 -0.17669384 4283516423
0.12300004 -0.28588903 -0.17943488 4283516423
0.12300004 -0.28720814 -0.17943488 4283516423
0.12200005 -0.2879636 -0.17888667 4283516423
0.12000002 -0.2881476 -0.17779024 4283516423
0.11800005 -0.28832135 -0.17669384 4283516423
0.091000035 -0.27914575 -0.16189219 4283516423
0.10100003 -0.28622529 -0.16737427 4283516423
0.087000027 0.23939684 -0.16092552 4290290996
0.088000014 0.23867315 -0.1614763 4289040929
0.094000027 0.24044371 -0.16478105 4287458577
0.098000035 0.23617044 -0.16698422 4282594305
0.099000022 0.23540026 -0.16753499 4282924036
0.10200001 0.2330588 -0.16918738 4283975175
0.10400002 0.23274203 -0.17028897 4283909636
0.10500003 0.23194349 -0.17083974 4283843843
-0.14399998 0.074231863 -0.033692904 4280156928
-0.14399998 0.073601998 -0.033692904 4280287744
-0.14399998 0.072972141 -0.033692904 4280353536
-0.14499998 0.072043739 -0.033142112 4280156928
-0.14499998 0.07141646 -0.033142112 4280156928
-0.14499998 0.070789173 -0.033142112 4280025856
-0.14499998 0.070161901 -0.033142112 4280025856
-0.14499998 0.069534615 -0.033142112 4280025856
-0.14499998 0.068907335 -0.033142112 4280091136
-0.14499998 0.068280064 -0.033142112 4280156928
-0.14499998 0.067652777 -0.033142112 4280156928
-0.14399998 0.067303382 -0.033692904 4280091136
-0.14399998 0.066673517 -0.033692904 4280091136
-0.14399998 0.06604366 -0.033692904 4280156928
-0.14399998 0.065413788 -0.033692904 4280156928
-0.14399998 0.064783931 -0.033692904 4280025856
-0.14399998 0.064154066 -0.033692904 4279698176
-0.14399998 0.063524209 -0.033692904 4279632640
-0.14499998 0.062634535 -0.033142112 4279698432
-0.14499998 0.062007248 -0.033142112 4279698432
-0.14499998 0.061379973 -0.033142112 4279567616
-0.14499998 0.06075269 -0.033142112 4279634176
-0.14499998 0.060125407 -0.033142112 4279962880
-0.14499998 0.059498131 -0.033142112 4280620808
-0.14499998 0.058870852 -0.033142112 4281477898
-0.14499998 0.058243569 -0.033142112 4280030464
-0.14499998 0.05761629 -0.033142112 4279766016
-0.14599998 0.056752428 -0.032591321 4279634432
-0.14599998 0.056127727 -0.032591321 4279897600
-0.14599998 0.052379534 -0.032591321 4280881664
-0.14499998 0.051970765 -0.033142112 4280816896
-0.14499998 0.051343482 -0.033142112 4280422912
-0.14499998 0.050716203 -0.033142112 4280357120
-0.14499998 0.050088923 -0.033142112 4280422912
-0.14499998 0.04946164 -0.033142112 4280817920
-0.14499998 0.045070678 -0.033142112 4279044352
-0.14499998 0.044443399 -0.033142112 4279044352
-0.14499998 0.043816116 -0.033142112 4279109376
-0.14499998 0.043188836 -0.033142112 4279109376
-0.14499998 0.042561557 -0.033142112 4279109376
-0.14499998 0.041934278 -0.033142112 4279306240
-0.14499998 0.041306995 -0.033142112 4279306240
-0.14499998 0.040679716 -0.033142112 4279174656
-0.14499998 0.040052436 -0.033142112 4278977792
-0.14499998 0.039425153 -0.033142112 4278781184
-0.14499998 0.038797874 -0.033142112 4278781696
-0.14499998 0.038170591 -0.033142112 4278781696
-0.14499998 0.037543312 -0.033142112 4278781696
-0.14499998 0.036288753 -0.033142112 4278846976
-0.14499998 0.035661474 -0.033142112 4279044352
-0.14499998 0.035034191 -0.033142112 4280162052
-0.14399998 0.034550559 -0.033692904 4281016064
-0.14399998 0.033920698 -0.033692904 4282066688
-0.14399998 0.033290837 -0.033692904 4282395393
-0.14399998 0.032660972 -0.033692904 4282329600
-0.14399998 0.032031111 -0.033692904 4282066432
-0.14399998 0.031401251 -0.033692904 4282198016
-0.14299999 0.030899553 -0.034243695 4282395392
-0.14399998 0.030141531 -0.033692904 4282329600
-0.14399998 0.029511668 -0.033692904 4282198016
-0.14399998 0.028881805 -0.033692904 4282329600
-0.14399998 0.028251942 -0.033692904 4282329600
-0.14399998 0.027622081 -0.033692904 4281804551
-0.14399998 0.02699222 -0.033692904 4280291328
-0.14399998 0.026362358 -0.033692904 4278846464
-0.14399998 0.025732495 -0.033692904 4278453504
-0.14399998 0.025102634 -0.033692904 4278453504
-0.14399998 0.024472771 -0.033692904 4278584320
-0.14399998 0.02384291 -0.033692904 4278584320
-0.14399998 0.023213048 -0.033692904 4278322176
-0.14399998 0.022583187 -0.033692904 4278256896
-0.14399998 0.021953324 -0.033692904 4278387712
-0.14399998 0.021323463 -0.033692904 4278387712
-0.14399998 0.0206936 -0.033692904 4278321920
-0.14399998 0.020063739 -0.033692904 4278387712
-0.14399998 0.019433876 -0.033692904 4278387968
-0.14399998 0.018804014 -0.033692904 4278387968
-0.14399998 0.018174153 -0.033692904 4278322176
-0.14399998 0.017544292 -0.033692904 4278387968
-0.14399998 0.016914429 -0.033692904 4278322176
-0.14399998 0.016284566 -0.033692904 4278453504
-0.14399998 0.015654704 -0.033692904 4278453504
-0.14399998 0.015024843 -0.033692904 4278453504
-0.14399998 0.014394981 -0.033692904 4278453504
-0.14299999 0.013823581 -0.034243695 4278519296
-0.14299999 0.013191138 -0.034243695 4278453504
-0.14299999 0.012558695 -0.034243695 4278519296
-0.14299999 0.011926252 -0.034243695 4278519296
-0.14299999 0.011293808 -0.034243695 4278387968
-0.14299999 0.010661365 -0.034243695 4278257152
-0.14299999 0.010028922 -0.034243695 4278322944
-0.14199999 0.0094368719 -0.034794487 4278322944
-0.14299999 0.0087640351 -0.034243695 4278322944
-0.14299999 0.0081315916 -0.034243695 4278453760
-0.14299999 0.0074991491 -0.034243695 4278519296
-0.14299999 0.0068667056 -0.034243695 4278519296
-0.14299999 0.0062342621 -0.034243695 4278519296
-0.14299999 0.0056018191 -0.034243695 4278519296
-0.14299999 0.0049693757 -0.034243695 4278585088
-0.14299999 0.0043369327 -0.034243695 4278585088
-0.14299999 0.0037044892 -0.034243695 4278519296
-0.14299999 0.003072046 -0.034243695 4278519296
-0.14299999 0.0024396027 -0.034243695 4278519296
-0.14299999 0.0018071594 -0.034243695 4278519296
-0.14299999 0.0011747163 -0.034243695 4278585088
-0.14299999 0.00054227299 -0.034243695 4278650112
-0.14299999 -9.0170281e-05 -0.034243695 4278650112
-0.14299999 -0.00072261353 -0.034243695 4278650112
-0.14299999 -0.0013550568 -0.034243695 4278585088
-0.14399998 -0.0019814288 -0.033692904 4278585088
-0.14399998 -0.0026112907 -0.033692904 4278585088
-0.14399998 -0.0032411525 -0.033692904 4278585088
-0.14399998 -0.0038710146 -0.033692904 4278519296
-0.14499998 -0.0044844793 -0.033142112 4278650112
-0.14499998 -0.00511176 -0.033142112 4278650112
-0.043999989 -0.014132597 -0.088771962 4278715392
-0.043999989 -0.0150206 -0.088771962 4278715392
-0.043999989 -0.015908601 -0.088771962 4278715392
-0.043999989 -0.016796602 -0.088771962 4278519296
-0.043999989 -0.017684605 -0.088771962 4278453504
-0.043999989 -0.018572606 -0.088771962 4278387968
-0.044999976 -0.01940549 -0.08822117 4278519552
-0.044999976 -0.020290911 -0.08822117 4278519552
-0.044999976 -0.021176333 -0.08822117 4278519296
-0.044999976 -0.022061754 -0.08822117 4278453504
-0.044999976 -0.022947174 -0.08822117 4278519296
-0.044999976 -0.023832593 -0.08822117 4278519296
-0.044999976 -0.024718015 -0.08822117 4278519296
-0.044999976 -0.025603436 -0.08822117 4278453504
-0.044999976 -0.026488855 -0.08822117 4278387712
-0.044999976 -0.027374277 -0.08822117 4278387456
-0.043999989 -0.028340628 -0.088771962 4278387456
-0.043999989 -0.029228631 -0.088771962 4278321920
-0.043999989 -0.030116633 -0.088771962 4278453504
-0.043999989 -0.031004634 -0.088771962 4278387968
-0.043999989 -0.031892639 -0.088771962 4278322176
-0.043999989 -0.03278064 -0.088771962 4278387968
-0.043999989 -0.033668641 -0.088771962 4278387968
-0.042999972 -0.034655645 -0.089322753 4278387968
-0.042999972 -0.035546232 -0.089322753 4278453504
-0.042999972 -0.036436815 -0.089322753 4278650112
-0.15099998 -0.053941257 -0.029837376 4288183833
-0.15099998 -0.054553047 -0.029837376 4287723802
-0.15199998 -0.054934189 -0.029286584 4287526175
-0.15199998 -0.055543397 -0.029286584 4287197210
-0.15199998 -0.056152608 -0.029286584 4287394337
-0.15299998 -0.056523424 -0.028735792 4287788841
-0.15299998 -0.057130054 -0.028735792 4287788843
-0.15399998 -0.05749312 -0.028185001 4288118058
-0.15399998 -0.058097165 -0.028185001 4288249376
-0.15499999 -0.058452491 -0.027634209 4288315169
-0.15499999 -0.059053961 -0.027634209 4289564453
-0.15599999 -0.059401538 -0.027083417 4289633326
-0.15599999 -0.060000427 -0.027083417 4289438015
-0.15699999 -0.060340259 -0.026532626 4288848472
-0.15699999 -0.060936559 -0.026532626 4286352994
-0.15799999 -0.061268654 -0.025981834 4284510790
-0.15799999 -0.061862376 -0.025981834 4280238881
-0.15899998 -0.062186729 -0.025431043 4278593823
-0.15899998 -0.062777862 -0.025431043 4278264356
-0.15899998 -0.063369013 -0.025431043 4278196511
-0.15999998 -0.063683033 -0.024880251 4278196511
-0.15999998 -0.064271592 -0.024880251 4278196768
-0.15999998 -0.06486015 -0.024880251 4278195744
-0.16099998 -0.065163843 -0.024329459 4278195748
-0.16099998 -0.065749824 -0.024329459 4278195748
-0.16099998 -0.066335797 -0.024329459 4278196005
-0.16099998 -0.066921785 -0.024329459 4278196005
-0.16199999 -0.067212567 -0.023778668 4278195744
-0.16199999 -0.06779597 -0.023778668 4278195744
-0.16199999 -0.068379365 -0.023778668 4278261024
-0.16199999 -0.06896276 -0.023778668 4278196512
-0.16199999 -0.069546156 -0.023778668 4278196001
-0.16199999 -0.070129551 -0.023778668 4278196258
-0.16199999 -0.070712954 -0.023778668 4278196511
-0.16199999 -0.071296342 -0.023778668 4278197020
-0.16199999 -0.071879745 -0.023778668 4278327582
-0.16199999 -0.07246314 -0.023778668 4278523678
-0.16199999 -0.073046535 -0.023778668 4278523678
-0.16199999 -0.073629931 -0.023778668 4278459168
-0.16199999 -0.074213333 -0.023778668 4278393627
-0.16199999 -0.074796729 -0.023778668 4278591004
-0.16099998 -0.075711451 -0.024329459 4278459418
-0.16099998 -0.076297432 -0.024329459 4278524700
-0.16099998 -0.076883405 -0.024329459 4278787874
-0.16099998 -0.077469386 -0.024329459 4278853665
-0.16099998 -0.078055359 -0.024329459 4278788383
-0.16099998 -0.078641348 -0.024329459 4278722590
-0.16099998 -0.079227321 -0.024329459 4278919710
-0.16099998 -0.079813302 -0.024329459 4278853917
-0.16099998 -0.080399275 -0.024329459 4278788124
-0.15999998 -0.081339814 -0.024880251 4278524950
-0.15999998 -0.081928372 -0.024880251 4278524950
-0.15999998 -0.082516931 -0.024880251 4279116055
-0.15899998 -0.083467804 -0.025431043 4279444248
-0.15899998 -0.08405894 -0.025431043 4279575322
-0.15799999 -0.085017547 -0.025981834 4279641115
-0.15799999 -0.085611269 -0.025981834 4279772186
-0.15699999 -0.086577624 -0.026532626 4279772186
-0.15699999 -0.087173924 -0.026532626 4279772699
-0.15599999 -0.08814802 -0.027083417 4279772699
-0.15499999 -0.08912728 -0.027634209 4279508246
-0.15499999 -0.089728743 -0.027634209 4279376409
-0.15399998 -0.090715751 -0.028185001 4279442200
-0.15399998 -0.091319799 -0.028185001 4279376407
-0.15299998 -0.092314549 -0.028735792 4279049239
-0.15299998 -0.092921175 -0.028735792 4279509016
-0.15199998 -0.093923673 -0.029286584 4280889634
-0.15199998 -0.094532885 -0.029286584 4280955427
-0.15099998 -0.095543116 -0.029837376 4281546276
-0.14999999 -0.096558511 -0.030388152 4281677855
-0.14999999 -0.097172886 -0.030388152 4282005019
-0.14899999 -0.09819603 -0.030938944 4282202398
-0.14799999 -0.099224336 -0.031489737 4282859553
-0.14699998 -0.10025781 -0.032040529 4282991389
-0.14699998 -0.10087992 -0.032040529 4283123229
-0.14599998 -0.10192114 -0.032591321 4283057436
-0.14499998 -0.10296752 -0.033142112 4282133262
0.10300003 -0.22528796 -0.16973816 4284436239
0.10200001 -0.22609502 -0.16918738 4284042251
0.10000004 -0.22643396 -0.1680858 4283779079
0.099000022 -0.22722812 -0.16753499 4283516423
0.098000035 -0.22801712 -0.16698422 4283516423
0.098000035 -0.23052625 -0.16698422 4283516423
0.098000035 -0.23428993 -0.16698422 4283516423
0.098000035 -0.23554449 -0.16698422 4283516423
0.099000022 -0.23854241 -0.16753499 4283516423
0.084000036 -0.25192365 -0.15927316 4283516423
0.084000036 -0.25314209 -0.15927316 4283516423
0.087000027 -0.25597402 -0.16092552 4283516423
0.091000035 -0.25936186 -0.16312869 4283516423
0.10600002 -0.27001864 -0.17139055 4283516423
0.10900001 -0.27293831 -0.17304291 4283516423
0.11300005 -0.27771756 -0.17524607 4283516423
0.11500002 -0.2814211 -0.17634766 4283516423
0.11500002 -0.28271955 -0.17634766 4283516423
0.11400004 -0.28345436 -0.17579688 4283516423
0.112 -0.28361771 -0.17469527 4283516423
0.10400002 -0.28416803 -0.17028897 4283516423
0.089000031 -0.27675095 -0.16202711 4283516423
0.096000031 -0.28205436 -0.16588263 4283516423
0.094000027 -0.28213516 -0.16478105 4283516423
0.098000035 -0.28572693 -0.16698422 4283516423
0.098000035 -0.28698149 -0.16698422 4283516423
0.10000004 -0.28942016 -0.1680858 4283516423
0.095000014 -0.2877067 -0.16533183 4283516423
0.085000023 -0.2829814 -0.15982394 4283516423
0.078000024 -0.28000385 -0.15596841 4283516423
-0.14499998 0.073298298 -0.033769377 4280287744
-0.14599998 0.072369903 -0.033216007 4280353536
-0.14599998 0.071745202 -0.033216007 4280156928
-0.14599998 0.071120508 -0.033216007 4280025856
-0.14599998 0.070495807 -0.033216007 4280025856
-0.14599998 0.069871105 -0.033216007 4280025856
-0.14599998 0.069246404 -0.033216007 4280025856
-0.14599998 0.06862171 -0.033216007 4280091136
-0.14499998 0.068280064 -0.033769377 4280156928
-0.14499998 0.067652777 -0.033769377 4280156928
-0.14499998 0.067025498 -0.033769377 4280091136
-0.14499998 0.066398211 -0.033769377 4280091136
-0.14499998 0.065770939 -0.033769377 4280156928
-0.14499998 0.065143652 -0.033769377 4280156928
-0.14499998 0.064516373 -0.033769377 4280025856
-0.14499998 0.063889094 -0.033769377 4279698176
-0.14499998 0.063261814 -0.033769377 4279632640
-0.14599998 0.062374726 -0.033216007 4279698432
-0.14599998 0.061750021 -0.033216007 4279698432
-0.14599998 0.061125323 -0.033216007 4279567616
-0.14599998 0.060500622 -0.033216007 4279634176
-0.14599998 0.05987592 -0.033216007 4279962880
-0.14599998 0.059251226 -0.033216007 4281609484
-0.14599998 0.058626525 -0.033216007 4281477898
-0.14599998 0.058001827 -0.033216007 4280030464
-0.14699998 0.057137962 -0.032662638 4279766016
-0.14699998 0.056515846 -0.032662638 4279634432
-0.14699998 0.055893727 -0.032662638 4280620288
-0.14699998 0.053405259 -0.032662638 4280752128
-0.14699998 0.052783143 -0.032662638 4280881664
-0.14699998 0.052161023 -0.032662638 4280881664
-0.14699998 0.051538907 -0.032662638 4280619520
-0.14699998 0.050916787 -0.032662638 4280422912
-0.14699998 0.050294667 -0.032662638 4280357120
-0.14699998 0.049672551 -0.032662638 4280422912
-0.14699998 0.049050432 -0.032662638 4280817920
-0.14699998 0.048428316 -0.032662638 4280225792
-0.14699998 0.0478062 -0.032662638 4280225536
-0.14699998 0.047184084 -0.032662638 4279963392
-0.14699998 0.045317728 -0.032662638 4278978816
-0.14699998 0.044695608 -0.032662638 4279044352
-0.14699998 0.044073492 -0.032662638 4279175168
-0.14599998 0.043633744 -0.033216007 4279109376
-0.14599998 0.043009046 -0.033216007 4279109376
-0.14599998 0.042384349 -0.033216007 4279109376
-0.14599998 0.041759651 -0.033216007 4279306240
-0.14599998 0.04113495 -0.033216007 4279306240
-0.14599998 0.040510252 -0.033216007 4279174656
-0.14599998 0.039885551 -0.033216007 4278912000
-0.14599998 0.039260853 -0.033216007 4278781184
-0.14599998 0.038636152 -0.033216007 4278781696
-0.14599998 0.037386753 -0.033216007 4278781696
-0.14599998 0.036762059 -0.033216007 4278781184
-0.14599998 0.03551266 -0.033216007 4279635712
-0.14599998 0.034887958 -0.033216007 4280162052
-0.14599998 0.034263261 -0.033216007 4281476615
-0.14599998 0.033638559 -0.033216007 4282066688
-0.14499998 0.033152349 -0.033769377 4282395393
-0.14499998 0.032525066 -0.033769377 4282329600
-0.14499998 0.031897787 -0.033769377 4282066432
-0.14499998 0.031270504 -0.033769377 4282329600
-0.14499998 0.03064323 -0.033769377 4282395392
-0.14499998 0.030015949 -0.033769377 4282329600
-0.14499998 0.029388668 -0.033769377 4282198016
-0.14499998 0.028761387 -0.033769377 4282329600
-0.14499998 0.028134108 -0.033769377 4282329600
-0.14499998 0.027506826 -0.033769377 4281804551
-0.14599998 0.026766874 -0.033216007 4278846464
-0.14599998 0.026142174 -0.033216007 4278846464
-0.14599998 0.025517475 -0.033216007 4278453504
-0.14499998 0.024997704 -0.033769377 4278453504
-0.14499998 0.024370423 -0.033769377 4278584320
-0.14499998 0.023743145 -0.033769377 4278387968
-0.14499998 0.023115864 -0.033769377 4278322176
-0.14499998 0.022488583 -0.033769377 4278256896
-0.14499998 0.021861302 -0.033769377 4278387712
-0.14499998 0.021234022 -0.033769377 4278387712
-0.14499998 0.020606741 -0.033769377 4278321920
-0.14499998 0.01997946 -0.033769377 4278387712
-0.14499998 0.019352179 -0.033769377 4278387968
-0.14499998 0.0187249 -0.033769377 4278387968
-0.14499998 0.01809762 -0.033769377 4278322176
-0.14499998 0.017470339 -0.033769377 4278387968
-0.14499998 0.016843058 -0.033769377 4278322176
-0.14499998 0.016215777 -0.033769377 4278453504
-0.14499998 0.015588495 -0.033769377 4278453504
-0.14499998 0.014961217 -0.033769377 4278453504
-0.14499998 0.014333935 -0.033769377 4278453504
-0.14399998 0.013765118 -0.034322761 4278519296
-0.14399998 0.013135257 -0.034322761 4278453504
-0.14399998 0.012505394 -0.034322761 4278519296
-0.14399998 0.011875533 -0.034322761 4278519296
-0.14399998 0.011245671 -0.034322761 4278387968
-0.14399998 0.010615809 -0.034322761 4278257152
-0.14399998 0.0099859471 -0.034322761 4278322944
-0.14299999 0.0093964785 -0.034876116 4278257152
-0.14299999 0.0087640351 -0.034876116 4278322944
-0.14399998 0.0080963615 -0.034322761 4278453760
-0.14399998 0.0074664997 -0.034322761 4278585088
-0.14399998 0.0068366379 -0.034322761 4278519296
-0.14399998 0.006206776 -0.034322761 4278519296
-0.14399998 0.0055769142 -0.034322761 4278519296
-0.14399998 0.0049470523 -0.034322761 4278585088
-0.14399998 0.0043171905 -0.034322761 4278585088
-0.14399998 0.0036873287 -0.034322761 4278519296
-0.14399998 0.0030574664 -0.034322761 4278519296
-0.14399998 0.0024276045 -0.034322761 4278519296
-0.14399998 0.0017977426 -0.034322761 4278519296
-0.14399998 0.0011678808 -0.034322761 4278585088
-0.14399998 0.00053801882 -0.034322761 4278650112
-0.14399998 -9.1843052e-05 -0.034322761 4278715904
-0.14399998 -0.00072170491 -0.034322761 4278650112
-0.14499998 -0.0013480767 -0.033769377 4278585088
-0.14499998 -0.0019753573 -0.033769377 4278585088
-0.14499998 -0.0026026377 -0.033769377 4278585088
-0.14499998 -0.0032299182 -0.033769377 4278519296
-0.14499998 -0.0038571989 -0.033769377 4278519296
-0.14499998 -0.0044844793 -0.033769377 4278650112
-0.14599998 -0.0050927815 -0.033216007 4278650112
-0.043999989 -0.0150206 -0.089659937 4278715392
-0.043999989 -0.015908601 -0.089659937 4278715392
-0.044999976 -0.016749229 -0.089106582 4278519296
-0.044999976 -0.017634649 -0.089106582 4278453504
-0.044999976 -0.01852007 -0.089106582 4278387968
-0.044999976 -0.01940549 -0.089106582 4278519552
-0.044999976 -0.020290911 -0.089106582 4278519552
-0.044999976 -0.021176333 -0.089106582 4278519296
-0.044999976 -0.022061754 -0.089106582 4278453504
-0.044999976 -0.022947174 -0.089106582 4278519296
-0.044999976 -0.023832593 -0.089106582 4278519296
-0.044999976 -0.024718015 -0.089106582 4278519296
-0.044999976 -0.025603436 -0.089106582 4278453504
-0.044999976 -0.026488855 -0.089106582 4278387712
-0.044999976 -0.027374277 -0.089106582 4278387456
-0.043999989 -0.028340628 -0.089659937 4278387456
-0.043999989 -0.029228631 -0.089659937 4278321920
-0.043999989 -0.030116633 -0.089659937 4278453504
-0.043999989 -0.031004634 -0.089659937 4278387968
-0.043999989 -0.031892639 -0.089659937 4278322176
-0.043999989 -0.03278064 -0.089659937 4278387968
-0.043999989 -0.033668641 -0.089659937 4278387968
-0.043999989 -0.034556642 -0.089659937 4278387968
-0.042999972 -0.035546232 -0.090213321 4278453504
-0.042999972 -0.036436815 -0.090213321 4278650112
-0.042999972 -0.037327398 -0.090213321 4278979072
-0.15199998 -0.055543397 -0.029895773 4287197210
-0.15199998 -0.056152608 -0.029895773 4287394337
-0.15299998 -0.056523424 -0.029342404 4287788841
-0.15299998 -0.057130054 -0.029342404 4287788843
-0.15399998 -0.05749312 -0.028789034 4288118058
-0.15399998 -0.058097165 -0.028789034 4288249376
-0.15499999 -0.058452491 -0.028235665 4288315169
-0.15499999 -0.059053961 -0.028235665 4289564453
-0.15599999 -0.059401538 -0.02768228 4289633326
-0.15599999 -0.060000427 -0.02768228 4289438015
-0.15699999 -0.060340259 -0.027128911 4288848472
-0.15699999 -0.060936559 -0.027128911 4286352994
-0.15799999 -0.061268654 -0.026575541 4284510790
-0.15799999 -0.061862376 -0.026575541 4280238881
-0.15899998 -0.062186729 -0.026022172 4278593823
-0.15899998 -0.062777862 -0.026022172 4278264356
-0.15899998 -0.063369013 -0.026022172 4278196511
-0.15999998 -0.063683033 -0.025468802 4278196511
-0.15999998 -0.064271592 -0.025468802 4278196768
-0.15999998 -0.06486015 -0.025468802 4278195744
-0.16099998 -0.065163843 -0.024915433 4278195748
-0.16099998 -0.065749824 -0.024915433 4278195748
-0.16099998 -0.066335797 -0.024915433 4278196005
-0.16099998 -0.066921785 -0.024915433 4278196005
-0.16199999 -0.067212567 -0.024362063 4278195744
-0.16199999 -0.06779597 -0.024362063 4278195744
-0.16199999 -0.068379365 -0.024362063 4278261024
-0.16199999 -0.06896276 -0.024362063 4278196512
-0.16199999 -0.069546156 -0.024362063 4278196001
-0.16199999 -0.070129551 -0.024362063 4278196258
-0.16199999 -0.070712954 -0.024362063 4278196511
-0.16199999 -0.071296342 -0.024362063 4278197020
-0.16199999 -0.071879745 -0.024362063 4278327582
-0.16199999 -0.07246314 -0.024362063 4278523678
-0.16199999 -0.073046535 -0.024362063 4278523678
-0.16199999 -0.073629931 -0.024362063 4278459168
-0.16199999 -0.074213333 -0.024362063 4278393627
-0.16199999 -0.074796729 -0.024362063 4278591004
-0.16099998 -0.075711451 -0.024915433 4278459418
-0.16099998 -0.076297432 -0.024915433 4278524700
-0.16099998 -0.076883405 -0.024915433 4278787874
-0.16099998 -0.077469386 -0.024915433 4278853665
-0.16099998 -0.078055359 -0.024915433 4278788383
-0.16099998 -0.078641348 -0.024915433 4278722590
-0.16099998 -0.079227321 -0.024915433 4278919710
-0.16099998 -0.079813302 -0.024915433 4278853917
-0.15999998 -0.080751255 -0.025468802 4278788124
-0.15999998 -0.081339814 -0.025468802 4278722331
-0.15999998 -0.081928372 -0.025468802 4278524950
-0.15999998 -0.082516931 -0.025468802 4279116055
-0.15899998 -0.083467804 -0.026022172 4279444248
-0.15899998 -0.08405894 -0.026022172 4279575322
-0.15799999 -0.085017547 -0.026575541 4279641115
-0.15799999 -0.085611269 -0.026575541 4279772186
-0.15699999 -0.086577624 -0.027128911 4279772186
-0.15699999 -0.087173924 -0.027128911 4279772699
-0.15599999 -0.08814802 -0.02768228 4279772699
-0.15599999 -0.088746905 -0.02768228 4279508246
-0.15499999 -0.089728743 -0.028235665 4279376409
-0.15499999 -0.090330213 -0.028235665 4279442200
-0.15399998 -0.091319799 -0.028789034 4279376407
-0.15299998 -0.092314549 -0.029342404 4279049239
-0.15299998 -0.092921175 -0.029342404 4279509016
-0.15199998 -0.093923673 -0.029895773 4280889634
-0.15199998 -0.094532885 -0.029895773 4280955427
-0.15099998 -0.095543116 -0.030449158 4281546276
-0.14999999 -0.096558511 -0.031002512 4281677855
-0.14999999 -0.097172886 -0.031002512 4282005019
-0.14899999 -0.09819603 -0.031555898 4282202398
-0.14799999 -0.099224336 -0.032109268 4282859553
-0.14699998 -0.10025781 -0.032662638 4282991389
-0.14699998 -0.10087992 -0.032662638 4283123229
-0.14599998 -0.10192114 -0.033216007 4283057436
-0.14499998 -0.10296752 -0.033769377 4282133262
0.095000014 -0.22037861 -0.16657864 4286081080
0.095000014 -0.22287224 -0.16657864 4284042251
0.093000039 -0.22319311 -0.1654719 4283648009
0.091000035 -0.22350365 -0.16436516 4283516423
0.090000018 -0.22427198 -0.16381179 4283516423
0.090000018 -0.22673979 -0.16381179 4283516423
0.090000018 -0.2279737 -0.16381179 4283516423
0.090000018 -0.22920762 -0.16381179 4283516423
0.090000018 -0.23044153 -0.16381179 4283516423
0.090000018 -0.23167545 -0.16381179 4283516423
0.090000018 -0.23290934 -0.16381179 4283516423
0.090000018 -0.23414326 -0.16381179 4283516423
0.089000031 -0.23611712 -0.16325842 4283516423
0.08600004 -0.23585884 -0.16159831 4283516423
0.077000037 -0.23259035 -0.15661795 4283516423
0.07600002 -0.23328899 -0.15606456 4283516423
0.073000029 -0.23297392 -0.15440445 4283516423
0.079000011 -0.24564372 -0.15772469 4283516423
0.077000037 -0.24579424 -0.15661795 4283516423
0.077000037 -0.24699457 -0.15661795 4283516423
0.078000024 -0.24872759 -0.15717132 4283516423
0.079000011 -0.25046578 -0.15772469 4283516423
0.081000015 -0.252747 -0.15883143 4283516423
0.082000032 -0.25449806 -0.1593848 4283516423
0.085000023 -0.25734034 -0.16104491 4283516423
0.096000031 -0.26581216 -0.16713201 4283516423
0.098000035 -0.26816308 -0.16823874 4283516423
0.10100003 -0.27107763 -0.16989888 4283516423
