# .PCD v0.7 - Point Cloud Data file format
VERSION 0.7
FIELDS x y z rgb
SIZE 4 4 4 4
TYPE F F F U
COUNT 1 1 1 1
WIDTH 973
HEIGHT 1
VIEWPOINT 0 0 0 1 0 0 0
POINTS 973
DATA ascii
-0.060999978 -0.00586183 0.0066915392 4282742393
-0.060999978 -0.0067059482 0.0066915392 4282676600
-0.060999978 -0.0075500663 0.0066915392 4282742393
-0.060999978 -0.0083941845 0.0066915392 4282808186
-0.060999978 -0.0092383027 0.0066915392 4282742393
-0.060999978 -0.010082422 0.0066915392 4282808186
-0.059999991 -0.010958424 0.0064040585 4282742393
-0.059999991 -0.011805124 0.0064040585 4282742393
-0.059999991 -0.012651823 0.0064040585 4283004795
-0.059999991 -0.013498523 0.0064040585 4283136381
-0.059999991 -0.014345223 0.0064040585 4283004795
-0.059999991 -0.015191922 0.0064040585 4283004795
-0.059999991 -0.016038621 0.0064040585 4282939002
-0.059999991 -0.01688532 0.0064040585 4282808186
-0.059999991 -0.01773202 0.0064040585 4282808186
-0.059999991 -0.018578719 0.0064040585 4282873979
-0.059999991 -0.019425418 0.0064040585 4282808186
-0.059999991 -0.020272119 0.0064040585 4282808186
-0.059999991 -0.02111882 0.0064040585 4282873979
-0.059999991 -0.021965517 0.0064040585 4282873979
-0.059999991 -0.022812217 0.0064040585 4283005565
-0.059999991 -0.023658916 0.0064040585 4282873979
-0.059999991 -0.024505617 0.0064040585 4282873979
-0.059999991 -0.025352314 0.0064040585 4283005565
-0.059999991 -0.026199015 0.0064040585 4282873979
-0.059999991 -0.027045716 0.0064040585 4282873979
-0.059999991 -0.027892414 0.0064040585 4282808186
-0.059999991 -0.028739115 0.0064040585 4282874493
-0.059999991 -0.029585812 0.0064040585 4282742907
-0.059999991 -0.030432513 0.0064040585 4282874493
-0.059999991 -0.031279214 0.0064040585 4282742907
-0.058999974 -0.032222338 0.006116563 4282742907
-0.058999974 -0.033071615 0.006116563 4283005565
-0.058999974 -0.033920899 0.006116563 4283005565
-0.058999974 -0.03477018 0.006116563 4283005565
-0.058999974 -0.03561946 0.006116563 4283005565
-0.058999974 -0.036468741 0.006116563 4283005565
-0.058999974 -0.037318021 0.006116563 4282873979
-0.058999974 -0.038167302 0.006116563 4282873979
-0.058999974 -0.039016586 0.006116563 4282874493
-0.059999991 -0.03974621 0.0064040585 4282742907
-0.058999974 -0.040715147 0.006116563 4282677114
-0.058999974 -0.041564427 0.006116563 4282545014
-0.058999974 -0.042413712 0.006116563 4282610807
-0.058999974 -0.043262988 0.006116563 4282545014
-0.058999974 -0.044112269 0.006116563 4282413428
-0.058999974 -0.044961549 0.006116563 4282545014
-0.058999974 -0.045810834 0.006116563 4282545014
-0.058999974 -0.046660114 0.006116563 4282545014
-0.058999974 -0.047509395 0.006116563 4282610807
-0.058999974 -0.048358675 0.006116563 4282545016
-0.058999974 -0.049207959 0.006116563 4282413430
-0.058999974 -0.05005724 0.006116563 4282413430
-0.058999974 -0.050906517 0.006116563 4282413942
-0.058999974 -0.051755797 0.006116563 4282413942
-0.058999974 -0.052605078 0.006116563 4282413942
-0.058999974 -0.053454362 0.006116563 4282413942
-0.058999974 -0.054303642 0.006116563 4282413942
-0.058999974 -0.055152923 0.006116563 4282479735
-0.058999974 -0.056002207 0.006116563 4282282356
-0.058999974 -0.056851488 0.006116563 4282479735
-0.058999974 -0.057700768 0.006116563 4282479735
-0.058999974 -0.058550045 0.006116563 4282610807
-0.058999974 -0.059399325 0.006116563 4282610807
-0.058999974 -0.06024861 0.006116563 4282676602
-0.058999974 -0.06109789 0.006116563 4282545016
-0.058999974 -0.061947171 0.006116563 4282545016
-0.058999974 -0.062796451 0.006116563 4282676602
-0.058999974 -0.063645735 0.006116563 4282610809
-0.058999974 -0.06449502 0.006116563 4282676602
-0.058999974 -0.065344296 0.006116563 4282610809
-0.058999974 -0.066193573 0.006116563 4282610809
-0.058999974 -0.067042857 0.006116563 4282610809
-0.058999974 -0.067892134 0.006116563 4282610809
-0.058999974 -0.068741418 0.006116563 4282610809
-0.058999974 -0.069590703 0.006116563 4282610809
-0.058999974 -0.070439979 0.006116563 4282742395
-0.058999974 -0.071289264 0.006116563 4282676602
-0.058999974 -0.072138548 0.006116563 4282676602
-0.058999974 -0.072987825 0.006116563 4282742395
-0.058999974 -0.073837101 0.006116563 4282610809
-0.058999974 -0.074686386 0.006116563 4282676602
-0.058999974 -0.07553567 0.006116563 4282676602
-0.057999987 -0.076615602 0.0058290823 4282807418
-0.057999987 -0.077467464 0.0058290823 4282741625
-0.057999987 -0.078319326 0.0058290823 4282741625
-0.05699997 -0.079409592 0.0055415868 4282610809
-0.05699997 -0.080264032 0.0055415868 4282676602
-0.05699997 -0.081118479 0.0055415868 4280768624
-0.05699997 -0.081972919 0.0055415868 4278860627
-0.055999983 -0.083076082 0.0052541061 4278203743
-0.055999983 -0.083933115 0.0052541061 4278202977
-0.054999996 -0.085044011 0.004966618 4278202209
-0.054999996 -0.08590363 0.004966618 4278202466
-0.054999996 -0.086763233 0.004966618 4278202209
-0.053999979 -0.087884463 0.0046791299 4278202209
-0.053999979 -0.088746659 0.0046791299 4278202209
-0.053999979 -0.089608841 0.0046791299 4278201952
-0.052999992 -0.090740405 0.0043916418 4278202209
-0.052999992 -0.091605172 0.0043916418 4278202212
-0.052999992 -0.092469946 0.0043916418 4278202214
-0.052999992 -0.093334712 0.0043916418 4278202471
-0.052999992 -0.094199486 0.0043916418 4278202473
-0.052999992 -0.095064253 0.0043916418 4278202473
-0.052999992 -0.095929019 0.0043916418 4278202473
-0.052999992 -0.096793793 0.0043916418 4278202473
-0.052999992 -0.09765856 0.0043916418 4278202215
-0.052999992 -0.098523334 0.0043916418 4278205293
-0.052999992 -0.0993881 0.0043916418 4278863223
-0.067999974 0.090074569 0.0078779105 4278206594
-0.067999974 0.089248508 0.0078779105 4278204793
-0.067999974 0.08842247 0.0078779105 4284127680
-0.067999974 0.087596416 0.0078779105 4282349961
-0.067999974 0.086770371 0.0078779105 4282546307
-0.066999987 0.086214453 0.007587844 4282480514
-0.066999987 0.085385829 0.007587844 4282807934
-0.066999987 0.084557191 0.007587844 4282807934
-0.066999987 0.083728567 0.007587844 4282807934
-0.06599997 0.08315976 0.0072977706 4282873727
-0.06599997 0.082328543 0.0072977706 4282807934
-0.06599997 0.081497334 0.0072977706 4282807934
-0.06599997 0.080666117 0.0072977706 4282676348
-0.06599997 0.079834908 0.0072977706 4282611323
-0.06599997 0.079003699 0.0072977706 4282545530
-0.06599997 0.07817249 0.0072977706 4282545530
-0.06599997 0.077341273 0.0072977706 4282808188
-0.06599997 0.076510064 0.0072977706 4282742395
-0.06599997 0.075678848 0.0072977706 4282545530
-0.06599997 0.074847639 0.0072977706 4282545530
-0.06599997 0.074016429 0.0072977706 4282479737
-0.06599997 0.073185213 0.0072977706 4282479737
-0.06599997 0.072354004 0.0072977706 4282413944
-0.06599997 0.071522795 0.0072977706 4282479737
-0.06599997 0.070691586 0.0072977706 4282479737
-0.06599997 0.069860376 0.0072977706 4282479737
-0.06599997 0.06902916 0.0072977706 4282413944
-0.06599997 0.068197951 0.0072977706 4282413944
-0.06599997 0.067366742 0.0072977706 4282413944
-0.06599997 0.066535525 0.0072977706 4282413944
-0.06599997 0.065704316 0.0072977706 4282282358
-0.06599997 0.064873107 0.0072977706 4282610809
-0.064999983 0.064242333 0.0070077046 4282413430
-0.064999983 0.063408539 0.0070077046 4282413430
-0.064999983 0.062574752 0.0070077046 4282347637
-0.064999983 0.061740957 0.0070077046 4282347637
-0.064999983 0.060907163 0.0070077046 4282347637
-0.063999996 0.060260899 0.0067176386 4282413430
-0.063999996 0.059424527 0.0067176386 4282347637
-0.063999996 0.058588151 0.0067176386 4282216565
-0.063999996 0.057751779 0.0067176386 4282216565
-0.063999996 0.056915406 0.0067176386 4282281844
-0.063999996 0.056079034 0.0067176386 4282347637
-0.063999996 0.055242658 0.0067176386 4282281844
-0.064999983 0.054236822 0.0070077046 4282412660
-0.064999983 0.053403031 0.0070077046 4282412660
-0.064999983 0.052569237 0.0070077046 4282281844
-0.064999983 0.051735442 0.0070077046 4282216051
-0.064999983 0.050901651 0.0070077046 4282281844
-0.064999983 0.050067857 0.0070077046 4282216051
-0.064999983 0.04923407 0.0070077046 4282084465
-0.064999983 0.048400275 0.0070077046 4281952879
-0.064999983 0.047566481 0.0070077046 4281952879
-0.063999996 0.046878919 0.0067176386 4281952879
-0.063999996 0.046042543 0.0067176386 4281887086
-0.063999996 0.045206171 0.0067176386 4282017902
-0.063999996 0.044369794 0.0067176386 4282083695
-0.063999996 0.043533422 0.0067176386 4282017902
-0.063999996 0.042697046 0.0067176386 4282017902
-0.063999996 0.041860674 0.0067176386 4282083693
-0.063999996 0.041024301 0.0067176386 4282083693
-0.063999996 0.040187929 0.0067176386 4282083693
-0.063999996 0.039351553 0.0067176386 4282083693
-0.063999996 0.03851518 0.0067176386 4282083693
-0.063999996 0.037678804 0.0067176386 4281952877
-0.063999996 0.036842432 0.0067176386 4281952877
-0.063999996 0.036006059 0.0067176386 4281952877
-0.063999996 0.035169683 0.0067176386 4281887084
-0.063999996 0.034333311 0.0067176386 4281952877
-0.063999996 0.033496935 0.0067176386 4281952877
-0.063999996 0.032660559 0.0067176386 4282084463
-0.062999979 0.031923957 0.0064275651 4282150256
-0.062999979 0.031085001 0.0064275651 4282216049
-0.062999979 0.030246045 0.0064275651 4282084463
-0.062999979 0.02940709 0.0064275651 4282150256
-0.062999979 0.028568137 0.0064275651 4282150256
-0.062999979 0.027729182 0.0064275651 4282150256
-0.062999979 0.026890226 0.0064275651 4282150256
-0.062999979 0.026051268 0.0064275651 4282150256
-0.062999979 0.025212312 0.0064275651 4282084463
-0.062999979 0.02437336 0.0064275651 4282084463
-0.062999979 0.023534404 0.0064275651 4282150256
-0.062999979 0.022695448 0.0064275651 4282084463
-0.062999979 0.021856492 0.0064275651 4282084461
-0.062999979 0.021017537 0.0064275651 4282084461
-0.062999979 0.020178583 0.0064275651 4282084461
-0.062999979 0.019339627 0.0064275651 4282084461
-0.062999979 0.018500671 0.0064275651 4282084461
-0.062999979 0.017661715 0.0064275651 4282150254
-0.062999979 0.016822759 0.0064275651 4282150254
-0.062999979 0.015983805 0.0064275651 4282150254
-0.062999979 0.015144848 0.0064275651 4282281070
-0.062999979 0.014305892 0.0064275651 4282281070
-0.062999979 0.013466937 0.0064275651 4282281070
-0.061999995 0.012668375 0.0061374991 4282281070
-0.061999995 0.011826839 0.0061374991 4282281070
-0.061999995 0.010985302 0.0061374991 4282412656
-0.061999995 0.010143766 0.0061374991 4282150254
-0.061999995 0.0093022287 0.0061374991 4282216047
-0.061999995 0.0084606921 0.0061374991 4282216047
-0.061999995 0.0076191546 0.0061374991 4282150254
-0.061999995 0.0067776185 0.0061374991 4282150254
-0.061999995 0.0059360815 0.0061374991 4282216047
-0.061999995 0.005094545 0.0061374991 4282216047
-0.061999995 0.0042530079 0.0061374991 4282347633
-0.061999995 0.0034114714 0.0061374991 4282412656
-0.061999995 0.0025699344 0.0061374991 4282412656
-0.061999995 0.0017283981 0.0061374991 4282412656
-0.060999978 0.00089111546 0.0058474257 4282281840
-0.060999978 4.699724e-05 0.0058474257 4282347633
-0.060999978 -0.00079712097 0.0058474257 4282347633
-0.060999978 -0.0016412392 0.0058474257 4282347633
-0.060999978 -0.0024853575 0.0058474257 4282281840
-0.060999978 -0.0033294756 0.0058474257 4282281842
-0.060999978 -0.0041735936 0.0058474257 4282347635
-0.060999978 -0.0050177122 0.0058474257 4282413428
-0.060999978 -0.00586183 0.0058474257 4282413428
-0.060999978 -0.0067059482 0.0058474257 4282347635
-0.059999991 -0.007571626 0.0055573597 4282413428
-0.059999991 -0.0084183253 0.0055573597 4282083693
-0.059999991 -0.0092650251 0.0055573597 4282083693
-0.059999991 -0.010111725 0.0055573597 4282281072
-0.059999991 -0.010958424 0.0055573597 4282280559
-0.059999991 -0.011805124 0.0055573597 4282346352
-0.059999991 -0.012651823 0.0055573597 4282280559
-0.059999991 -0.013498523 0.0055573597 4282346352
-0.059999991 -0.014345223 0.0055573597 4282346350
-0.059999991 -0.015191922 0.0055573597 4282281070
-0.059999991 -0.016038621 0.0055573597 4282215277
-0.059999991 -0.01688532 0.0055573597 4282215277
-0.059999991 -0.01773202 0.0055573597 4282215277
-0.059999991 -0.018578719 0.0055573597 4282281070
-0.059999991 -0.019425418 0.0055573597 4282281070
-0.059999991 -0.020272119 0.0055573597 4282281070
-0.059999991 -0.02111882 0.0055573597 4282346863
-0.058999974 -0.022030961 0.0052672862 4282215277
-0.058999974 -0.022880243 0.0052672862 4282281070
-0.058999974 -0.023729526 0.0052672862 4282281070
-0.058999974 -0.024578806 0.0052672862 4282215277
-0.058999974 -0.025428085 0.0052672862 4282346863
-0.058999974 -0.026277367 0.0052672862 4282281072
-0.058999974 -0.027126649 0.0052672862 4282346865
-0.058999974 -0.02797593 0.0052672862 4282281072
-0.058999974 -0.028825212 0.0052672862 4282346865
-0.058999974 -0.029674491 0.0052672862 4282346865
-0.058999974 -0.030523771 0.0052672862 4282281072
-0.058999974 -0.031373054 0.0052672862 4282346865
-0.058999974 -0.032222338 0.0052672862 4282412658
-0.058999974 -0.033071615 0.0052672862 4282216049
-0.058999974 -0.033920899 0.0052672862 4282150256
-0.058999974 -0.03477018 0.0052672862 4282216049
-0.058999974 -0.03561946 0.0052672862 4282084463
-0.058999974 -0.036468741 0.0052672862 4282216049
-0.058999974 -0.037318021 0.0052672862 4282216049
-0.058999974 -0.038167302 0.0052672862 4282281072
-0.058999974 -0.039016586 0.0052672862 4282346865
-0.058999974 -0.039865866 0.0052672862 4282346865
-0.058999974 -0.040715147 0.0052672862 4282346865
-0.058999974 -0.041564427 0.0052672862 4282281072
-0.058999974 -0.042413712 0.0052672862 4282346865
-0.058999974 -0.043262988 0.0052672862 4282281072
-0.058999974 -0.044112269 0.0052672862 4282346865
-0.058999974 -0.044961549 0.0052672862 4282281072
-0.058999974 -0.045810834 0.0052672862 4282281072
-0.058999974 -0.046660114 0.0052672862 4282281072
-0.058999974 -0.047509395 0.0052672862 4282281072
-0.058999974 -0.048358675 0.0052672862 4282281074
-0.058999974 -0.049207959 0.0052672862 4282281074
-0.058999974 -0.05005724 0.0052672862 4282150256
-0.058999974 -0.050906517 0.0052672862 4282216049
-0.058999974 -0.051755797 0.0052672862 4282084977
-0.058999974 -0.052605078 0.0052672862 4282150770
-0.058999974 -0.053454362 0.0052672862 4282084977
-0.058999974 -0.054303642 0.0052672862 4282150770
-0.058999974 -0.055152923 0.0052672862 4282150770
-0.058999974 -0.056002207 0.0052672862 4282084979
-0.058999974 -0.056851488 0.0052672862 4282084979
-0.058999974 -0.057700768 0.0052672862 4282216565
-0.058999974 -0.058550045 0.0052672862 4282347637
-0.058999974 -0.059399325 0.0052672862 4282347637
-0.058999974 -0.06024861 0.0052672862 4282347637
-0.058999974 -0.06109789 0.0052672862 4282281844
-0.058999974 -0.061947171 0.0052672862 4282347637
-0.058999974 -0.062796451 0.0052672862 4282413430
-0.058999974 -0.063645735 0.0052672862 4282544246
-0.058999974 -0.06449502 0.0052672862 4282412660
-0.058999974 -0.065344296 0.0052672862 4282346867
-0.058999974 -0.066193573 0.0052672862 4282346867
-0.058999974 -0.067042857 0.0052672862 4282346867
-0.058999974 -0.067892134 0.0052672862 4282346867
-0.058999974 -0.069590703 0.0052672862 4282216051
-0.058999974 -0.070439979 0.0052672862 4282346867
-0.058999974 -0.071289264 0.0052672862 4282412660
-0.058999974 -0.072138548 0.0052672862 4282412660
-0.058999974 -0.072987825 0.0052672862 4282412660
-0.058999974 -0.073837101 0.0052672862 4282346867
-0.058999974 -0.074686386 0.0052672862 4282412660
-0.058999974 -0.07553567 0.0052672862 4282346867
-0.057999987 -0.076615602 0.0049772202 4282346867
-0.057999987 -0.077467464 0.0049772202 4282412660
-0.057999987 -0.078319326 0.0049772202 4282412660
-0.05699997 -0.079409592 0.0046871467 4282412660
-0.05699997 -0.080264032 0.0046871467 4282280822
-0.05699997 -0.081118479 0.0046871467 4279583587
-0.055999983 -0.082219057 0.0043970807 4278991450
-0.055999983 -0.083076082 0.0043970807 4278269275
-0.055999983 -0.083933115 0.0043970807 4278203228
-0.054999996 -0.085044011 0.0041070147 4278203230
-0.054999996 -0.08590363 0.0041070147 4278400609
-0.053999979 -0.087022282 0.0038169415 4278400609
-0.053999979 -0.087884463 0.0038169415 4278597986
-0.053999979 -0.088746659 0.0038169415 4278467170
-0.053999979 -0.089608841 0.0038169415 4278467684
-0.052999992 -0.090740405 0.0035268755 4278730856
-0.052999992 -0.091605172 0.0035268755 4278599787
-0.052999992 -0.092469946 0.0035268755 4278205288
-0.052999992 -0.093334712 0.0035268755 4278205547
-0.052999992 -0.094199486 0.0035268755 4278403439
-0.052999992 -0.095064253 0.0035268755 4278600818
-0.052999992 -0.095929019 0.0035268755 4278205547
-0.052999992 -0.096793793 0.0035268755 4278270570
-0.052999992 -0.09765856 0.0035268755 4278928489
-0.052999992 -0.098523334 0.0035268755 4280506987
-0.14299999 0.084657229 0.029000642 4278202743
-0.14299999 0.084024779 0.029000642 4278202743
-0.14199999 0.083734758 0.02870799 4278202743
-0.068999991 0.089791514 0.0073445081 4278206337
-0.068999991 0.088968046 0.0073445081 4278535816
-0.067999974 0.08842247 0.0070518567 4283338948
-0.067999974 0.087596416 0.0070518567 4282416529
-0.067999974 0.086770371 0.0070518567 4282216572
-0.067999974 0.085944317 0.0070518567 4282348158
-0.066999987 0.085385829 0.0067592054 4282544762
-0.066999987 0.084557191 0.0067592054 4282675578
-0.06599997 0.083990961 0.006466554 4282413176
-0.06599997 0.08315976 0.006466554 4282544762
-0.06599997 0.082328543 0.006466554 4282544762
-0.06599997 0.081497334 0.006466554 4282413176
-0.06599997 0.080666117 0.006466554 4282346867
-0.06599997 0.079834908 0.006466554 4282346867
-0.06599997 0.079003699 0.006466554 4282346867
-0.06599997 0.07817249 0.006466554 4282281074
-0.06599997 0.077341273 0.006466554 4282281074
-0.06599997 0.076510064 0.006466554 4282281074
-0.06599997 0.075678848 0.006466554 4282281074
-0.06599997 0.074847639 0.006466554 4282281074
-0.06599997 0.074016429 0.006466554 4282215281
-0.06599997 0.073185213 0.006466554 4282084465
-0.06599997 0.072354004 0.006466554 4282084465
-0.06599997 0.071522795 0.006466554 4282084465
-0.06599997 0.070691586 0.006466554 4282084465
-0.064999983 0.07007888 0.0061739101 4281952879
-0.064999983 0.069245085 0.0061739101 4281952879
-0.064999983 0.068411298 0.0061739101 4281952879
-0.064999983 0.067577504 0.0061739101 4281952879
-0.064999983 0.066743709 0.0061739101 4282084465
-0.064999983 0.065909915 0.0061739101 4281887086
-0.064999983 0.06507612 0.0061739101 4282281074
-0.064999983 0.064242333 0.0061739101 4282083695
-0.064999983 0.063408539 0.0061739101 4282083695
-0.064999983 0.062574752 0.0061739101 4282083695
-0.063999996 0.061933648 0.0058812588 4282083695
-0.063999996 0.061097275 0.0058812588 4282083695
-0.063999996 0.060260899 0.0058812588 4282017902
-0.063999996 0.059424527 0.0058812588 4282083695
-0.063999996 0.058588151 0.0058812588 4282017902
-0.063999996 0.057751779 0.0058812588 4282017902
-0.063999996 0.056915406 0.0058812588 4282083695
-0.063999996 0.056079034 0.0058812588 4282083695
-0.063999996 0.055242658 0.0058812588 4282083182
-0.063999996 0.054406285 0.0058812588 4282083182
-0.063999996 0.053569909 0.0058812588 4282083182
-0.063999996 0.052733537 0.0058812588 4282083182
-0.063999996 0.051897161 0.0058812588 4282148975
-0.063999996 0.051060785 0.0058812588 4282017902
-0.063999996 0.050224412 0.0058812588 4282083695
-0.063999996 0.049388044 0.0058812588 4281755500
-0.063999996 0.048551667 0.0058812588 4281755500
-0.063999996 0.047715295 0.0058812588 4281821293
-0.063999996 0.046878919 0.0058812588 4281821293
-0.063999996 0.046042543 0.0058812588 4281952109
-0.063999996 0.045206171 0.0058812588 4281886316
-0.063999996 0.044369794 0.0058812588 4281820523
-0.063999996 0.043533422 0.0058812588 4281886316
-0.063999996 0.042697046 0.0058812588 4281952109
-0.063999996 0.041860674 0.0058812588 4281886316
-0.063999996 0.041024301 0.0058812588 4281886316
-0.063999996 0.040187929 0.0058812588 4281886316
-0.063999996 0.039351553 0.0058812588 4281886316
-0.063999996 0.03851518 0.0058812588 4281886316
-0.063999996 0.037678804 0.0058812588 4281886314
-0.063999996 0.036842432 0.0058812588 4281755498
-0.062999979 0.036118735 0.0055886074 4281821291
-0.062999979 0.035279777 0.0055886074 4281755498
-0.062999979 0.034440823 0.0055886074 4281952107
-0.062999979 0.033601865 0.0055886074 4281952107
-0.062999979 0.032762911 0.0055886074 4282017900
-0.062999979 0.031923957 0.0055886074 4282017900
-0.062999979 0.031085001 0.0055886074 4282083693
-0.062999979 0.030246045 0.0055886074 4282017900
-0.062999979 0.02940709 0.0055886074 4282017900
-0.062999979 0.028568137 0.0055886074 4282017900
-0.062999979 0.027729182 0.0055886074 4281952107
-0.062999979 0.026890226 0.0055886074 4281952107
-0.062999979 0.026051268 0.0055886074 4281755498
-0.062999979 0.025212312 0.0055886074 4281821291
-0.062999979 0.02437336 0.0055886074 4281623910
-0.061999995 0.023608355 0.005295956 4281426531
-0.061999995 0.022766817 0.005295956 4281623140
-0.061999995 0.02192528 0.005295956 4281820006
-0.061999995 0.021083742 0.005295956 4281688420
-0.061999995 0.020242209 0.005295956 4281820006
-0.061999995 0.019400671 0.005295956 4281688420
-0.061999995 0.018559134 0.005295956 4281623140
-0.061999995 0.017717598 0.005295956 4281623140
-0.061999995 0.016876061 0.005295956 4281557347
-0.061999995 0.016034525 0.005295956 4281557347
-0.061999995 0.015192986 0.005295956 4281820006
-0.061999995 0.014351448 0.005295956 4281622627
-0.061999995 0.013509912 0.005295956 4281820006
-0.061999995 0.012668375 0.005295956 4281622627
-0.060999978 0.011864652 0.0050033047 4281688420
-0.061999995 0.010985302 0.005295956 4281688420
-0.061999995 0.010143766 0.005295956 4281688420
-0.061999995 0.0093022287 0.005295956 4281622627
-0.060999978 0.0084881792 0.0050033047 4281688420
-0.060999978 0.007644061 0.0050033047 4281688420
-0.060999978 0.0067999428 0.0050033047 4281688420
-0.060999978 0.0059558246 0.0050033047 4281820006
-0.060999978 0.0051117064 0.0050033047 4281819236
-0.060999978 0.0042675883 0.0050033047 4281950822
-0.060999978 0.0034234701 0.0050033047 4281688420
-0.060999978 0.0025793517 0.0050033047 4281820006
-0.060999978 0.0017352338 0.0050033047 4281688420
-0.060999978 0.00089111546 0.0050033047 4281622627
-0.060999978 4.699724e-05 0.0050033047 4281688420
-0.060999978 -0.00079712097 0.0050033047 4281688420
-0.060999978 -0.0016412392 0.0050033047 4281820006
-0.059999991 -0.0024914287 0.0047106533 4281820006
-0.059999991 -0.0033381283 0.0047106533 4281885799
-0.059999991 -0.0041848277 0.0047106533 4281820006
-0.059999991 -0.0050315275 0.0047106533 4281820006
-0.059999991 -0.0058782268 0.0047106533 4281688420
-0.059999991 -0.0067249266 0.0047106533 4281820006
-0.059999991 -0.007571626 0.0047106533 4281820006
-0.059999991 -0.0084183253 0.0047106533 4281820006
-0.058999974 -0.0092917476 0.004418002 4281820006
-0.058999974 -0.01014103 0.004418002 4281885799
-0.058999974 -0.01099031 0.004418002 4281885799
-0.058999974 -0.011839592 0.004418002 4281951592
-0.058999974 -0.012688871 0.004418002 4282016615
-0.058999974 -0.013538153 0.004418002 4281950822
-0.058999974 -0.014387435 0.004418002 4282082408
-0.058999974 -0.015236715 0.004418002 4281951592
-0.058999974 -0.016085995 0.004418002 4281951592
-0.058999974 -0.016935276 0.004418002 4281885799
-0.058999974 -0.017784558 0.004418002 4281951592
-0.058999974 -0.018633839 0.004418002 4281951592
-0.058999974 -0.019483119 0.004418002 4281951592
-0.058999974 -0.020332402 0.004418002 4281951592
-0.058999974 -0.021181682 0.004418002 4281951592
-0.058999974 -0.022030961 0.004418002 4281951592
-0.058999974 -0.022880243 0.004418002 4281886312
-0.058999974 -0.023729526 0.004418002 4281952105
-0.058999974 -0.024578806 0.004418002 4281820519
-0.057999987 -0.025503853 0.0041253506 4281952105
-0.057999987 -0.026355717 0.0041253506 4281952105
-0.057999987 -0.027207579 0.0041253506 4281886312
-0.057999987 -0.028059442 0.0041253506 4281952105
-0.057999987 -0.028911306 0.0041253506 4282017385
-0.057999987 -0.029763166 0.0041253506 4282017385
-0.057999987 -0.030615028 0.0041253506 4281951592
-0.057999987 -0.031466894 0.0041253506 4282083180
-0.057999987 -0.032318756 0.0041253506 4281556836
-0.057999987 -0.033170618 0.0041253506 4281556834
-0.057999987 -0.03402248 0.0041253506 4281557347
-0.057999987 -0.034874342 0.0041253506 4281491554
-0.057999987 -0.035726205 0.0041253506 4281491554
-0.057999987 -0.036578067 0.0041253506 4281557347
-0.057999987 -0.037429929 0.0041253506 4281622627
-0.057999987 -0.038281791 0.0041253506 4281687650
-0.057999987 -0.039133653 0.0041253506 4281687650
-0.058999974 -0.039865866 0.004418002 4281819236
-0.058999974 -0.040715147 0.004418002 4281753443
-0.058999974 -0.041564427 0.004418002 4281687650
-0.058999974 -0.042413712 0.004418002 4281687650
-0.058999974 -0.043262988 0.004418002 4281556834
-0.058999974 -0.044112269 0.004418002 4281556834
-0.058999974 -0.044961549 0.004418002 4281622627
-0.058999974 -0.045810834 0.004418002 4281622627
-0.058999974 -0.046660114 0.004418002 4281557347
-0.058999974 -0.047509395 0.004418002 4281623140
-0.058999974 -0.048358675 0.004418002 4281557347
-0.058999974 -0.049207959 0.004418002 4281623142
-0.058999974 -0.05005724 0.004418002 4281491556
-0.058999974 -0.050906517 0.004418002 4281557349
-0.057999987 -0.051911589 0.0041253506 4281360740
-0.057999987 -0.052763451 0.0041253506 4281492326
-0.057999987 -0.053615313 0.0041253506 4281492326
-0.057999987 -0.054467179 0.0041253506 4281623912
-0.057999987 -0.055319041 0.0041253506 4281492326
-0.057999987 -0.056170903 0.0041253506 4281886314
-0.057999987 -0.057022765 0.0041253506 4281886314
-0.057999987 -0.057874627 0.0041253506 4282017900
-0.057999987 -0.058726486 0.0041253506 4281952877
-0.057999987 -0.059578352 0.0041253506 4282084463
-0.057999987 -0.060430214 0.0041253506 4282084465
-0.057999987 -0.061282076 0.0041253506 4282150258
-0.057999987 -0.062133938 0.0041253506 4282150258
-0.057999987 -0.0629858 0.0041253506 4282150258
-0.058999974 -0.063645735 0.004418002 4282215281
-0.058999974 -0.06449502 0.004418002 4282215281
-0.058999974 -0.067042857 0.004418002 4282280561
-0.058999974 -0.067892134 0.004418002 4282281074
-0.058999974 -0.068741418 0.004418002 4282215281
-0.058999974 -0.069590703 0.004418002 4282281074
-0.058999974 -0.070439979 0.004418002 4282215281
-0.058999974 -0.071289264 0.004418002 4282215281
-0.058999974 -0.072138548 0.004418002 4282412147
-0.058999974 -0.072987825 0.004418002 4282346354
-0.058999974 -0.073837101 0.004418002 4282280561
-0.058999974 -0.074686386 0.004418002 4282281074
-0.057999987 -0.075763732 0.0041253506 4282281074
-0.057999987 -0.076615602 0.0041253506 4282281074
-0.057999987 -0.077467464 0.0041253506 4282281074
-0.05699997 -0.078555144 0.0038326995 4282346867
-0.05699997 -0.079409592 0.0038326995 4282148975
-0.05699997 -0.080264032 0.0038326995 4281226599
-0.055999983 -0.082219057 0.0035400481 4279320155
-0.055999983 -0.083076082 0.0035400481 4278794586
-0.055999983 -0.083933115 0.0035400481 4278728795
-0.054999996 -0.085044011 0.0032474042 4278794334
-0.054999996 -0.08590363 0.0032474042 4278925920
-0.053999979 -0.087022282 0.0029547529 4278860127
-0.053999979 -0.087884463 0.0029547529 4278795104
-0.053999979 -0.088746659 0.0029547529 4278729824
-0.053999979 -0.089608841 0.0029547529 4278730594
-0.052999992 -0.090740405 0.0026621015 4278532186
-0.052999992 -0.091605172 0.0026621015 4278203743
-0.052999992 -0.092469946 0.0026621015 4278203745
-0.052999992 -0.093334712 0.0026621015 4278204259
-0.052999992 -0.094199486 0.0026621015 4278270822
-0.052999992 -0.095064253 0.0026621015 4278402408
-0.052999992 -0.095929019 0.0026621015 4279191661
-0.052999992 -0.096793793 0.0026621015 4280638321
-0.14399998 0.086199239 0.028663429 4278202743
-0.14399998 0.085569374 0.028663429 4278202743
-0.14399998 0.08493951 0.028663429 4278202743
-0.14299999 0.084657229 0.028368207 4278202486
-0.14299999 0.084024779 0.028368207 4278202486
-0.14299999 0.083392344 0.028368207 4278202743
-0.067999974 0.08842247 0.0062258109 4280971692
-0.067999974 0.087596416 0.0062258109 4282220187
-0.067999974 0.086770371 0.0062258109 4281887607
-0.067999974 0.085944317 0.0062258109 4281690228
-0.066999987 0.085385829 0.0059305816 4282215027
-0.066999987 0.084557191 0.0059305816 4282280307
-0.06599997 0.083990961 0.0056353449 4282280561
-0.06599997 0.08315976 0.0056353449 4282280561
-0.06599997 0.082328543 0.0056353449 4282148975
-0.06599997 0.081497334 0.0056353449 4282083182
-0.06599997 0.080666117 0.0056353449 4282148975
-0.06599997 0.079834908 0.0056353449 4282148975
-0.06599997 0.079003699 0.0056353449 4282148975
-0.06599997 0.07817249 0.0056353449 4282083182
-0.06599997 0.077341273 0.0056353449 4282083182
-0.06599997 0.076510064 0.0056353449 4282083182
-0.06599997 0.075678848 0.0056353449 4282083182
-0.06599997 0.074847639 0.0056353449 4282083182
-0.064999983 0.074247845 0.0053401156 4282017389
-0.064999983 0.07341405 0.0053401156 4281886316
-0.064999983 0.072580256 0.0053401156 4282017902
-0.064999983 0.071746469 0.0053401156 4281952109
-0.064999983 0.070912674 0.0053401156 4281952109
-0.064999983 0.07007888 0.0053401156 4281886316
-0.064999983 0.069245085 0.0053401156 4281886316
-0.064999983 0.068411298 0.0053401156 4281886316
-0.064999983 0.067577504 0.0053401156 4281952109
-0.064999983 0.066743709 0.0053401156 4281886316
-0.064999983 0.065909915 0.0053401156 4281820523
-0.064999983 0.06507612 0.0053401156 4281952109
-0.064999983 0.064242333 0.0053401156 4281951596
-0.064999983 0.063408539 0.0053401156 4282017389
-0.063999996 0.062770024 0.0050448938 4281951596
-0.063999996 0.061933648 0.0050448938 4281951596
-0.063999996 0.061097275 0.0050448938 4281886316
-0.063999996 0.060260899 0.0050448938 4281952109
-0.063999996 0.059424527 0.0050448938 4281886316
-0.063999996 0.058588151 0.0050448938 4281820523
-0.063999996 0.057751779 0.0050448938 4281688424
-0.063999996 0.056915406 0.0050448938 4281820010
-0.063999996 0.056079034 0.0050448938 4281688424
-0.063999996 0.055242658 0.0050448938 4281688424
-0.063999996 0.054406285 0.0050448938 4281885803
-0.063999996 0.053569909 0.0050448938 4281951596
-0.063999996 0.052733537 0.0050448938 4281885803
-0.063999996 0.051897161 0.0050448938 4281951596
-0.063999996 0.051060785 0.0050448938 4281951596
-0.063999996 0.050224412 0.0050448938 4281886316
-0.062999979 0.049542021 0.0047496497 4281623144
-0.062999979 0.048703063 0.0047496497 4281491558
-0.062999979 0.047864109 0.0047496497 4281491558
-0.062999979 0.047025152 0.0047496497 4281491558
-0.062999979 0.046186198 0.0047496497 4281491558
-0.062999979 0.04534724 0.0047496497 4281425763
-0.062999979 0.044508286 0.0047496497 4281425763
-0.062999979 0.043669328 0.0047496497 4281425763
-0.062999979 0.042830374 0.0047496497 4281425763
-0.062999979 0.041991416 0.0047496497 4281491556
-0.062999979 0.041152466 0.0047496497 4281359970
-0.062999979 0.040313512 0.0047496497 4281359970
-0.062999979 0.039474554 0.0047496497 4281359970
-0.062999979 0.037796643 0.0047496497 4281359970
-0.062999979 0.036957685 0.0047496497 4281359970
-0.062999979 0.036118735 0.0047496497 4281491556
-0.062999979 0.035279777 0.0047496497 4281557349
-0.061999995 0.034548331 0.0044544279 4281688420
-0.061999995 0.033706792 0.0044544279 4281622627
-0.061999995 0.032865256 0.0044544279 4281556834
-0.061999995 0.03202372 0.0044544279 4281491041
-0.061999995 0.031182187 0.0044544279 4281425248
-0.061999995 0.030340647 0.0044544279 4281556834
-0.061999995 0.02949911 0.0044544279 4281425248
-0.061999995 0.028657576 0.0044544279 4281425248
-0.061999995 0.027816039 0.0044544279 4281491041
-0.060999978 0.02705878 0.0041591912 4281491041
-0.061999995 0.026132964 0.0044544279 4281359455
-0.060999978 0.025370544 0.0041591912 4281359968
-0.060999978 0.024526427 0.0041591912 4281359968
-0.060999978 0.023682307 0.0041591912 4281294175
-0.060999978 0.022838188 0.0041591912 4281294175
-0.060999978 0.021994071 0.0041591912 4281425248
-0.060999978 0.021149952 0.0041591912 4281425248
-0.060999978 0.020305835 0.0041591912 4281425248
-0.060999978 0.019461717 0.0041591912 4281359455
-0.060999978 0.018617598 0.0041591912 4281425248
-0.060999978 0.017773481 0.0041591912 4281227869
-0.060999978 0.016929362 0.0041591912 4281359455
-0.060999978 0.016085245 0.0041591912 4281227869
-0.060999978 0.015241125 0.0041591912 4281556318
-0.060999978 0.014397006 0.0041591912 4281358939
-0.060999978 0.013552888 0.0041591912 4281490525
-0.059999991 0.012749163 0.0038639621 4281490525
-0.059999991 0.011902464 0.0038639621 4281490525
-0.059999991 0.011055764 0.0038639621 4281490525
-0.060999978 0.010176416 0.0041591912 4281359709
-0.060999978 0.0093322974 0.0041591912 4281228123
-0.060999978 0.0084881792 0.0041591912 4281359709
-0.060999978 0.007644061 0.0041591912 4281227869
-0.060999978 0.0067999428 0.0041591912 4281359455
-0.059999991 0.0059755668 0.0038639621 4281556064
-0.059999991 0.0051288675 0.0038639621 4281358685
-0.059999991 0.0042821676 0.0038639621 4281490271
-0.059999991 0.0034354683 0.0038639621 4281490525
-0.059999991 0.0025887685 0.0038639621 4281359709
-0.059999991 0.0017420693 0.0038639621 4281359709
-0.058999974 0.00089962379 0.0035687254 4281161560
-0.058999974 5.0342784e-05 0.0035687254 4281095767
-0.058999974 -0.00079893821 0.0035687254 4281161560
-0.058999974 -0.0016482192 0.0035687254 4281095767
-0.058999974 -0.0024975003 0.0035687254 4281161560
-0.058999974 -0.0033467812 0.0035687254 4281227353
-0.058999974 -0.0041960622 0.0035687254 4281161560
-0.058999974 -0.0050453432 0.0035687254 4281227353
-0.057999987 -0.005911021 0.0032734962 4281095767
-0.057999987 -0.0067628836 0.0032734962 4281161560
-0.057999987 -0.0076147458 0.0032734962 4281161560
-0.057999987 -0.0084666079 0.0032734962 4281096537
-0.057999987 -0.00931847 0.0032734962 4281161560
-0.057999987 -0.010170333 0.0032734962 4281227353
-0.057999987 -0.011022195 0.0032734962 4281227353
-0.057999987 -0.011874058 0.0032734962 4281161560
-0.057999987 -0.012725919 0.0032734962 4281227353
-0.057999987 -0.013577783 0.0032734962 4281293146
-0.057999987 -0.014429646 0.0032734962 4281358939
-0.057999987 -0.015281507 0.0032734962 4281293146
-0.057999987 -0.01613337 0.0032734962 4281227353
-0.057999987 -0.01698523 0.0032734962 4281293146
-0.057999987 -0.017837094 0.0032734962 4281293146
-0.057999987 -0.018688954 0.0032734962 4281293146
-0.05699997 -0.019598519 0.0029782595 4281358939
-0.05699997 -0.020452963 0.0029782595 4281227353
-0.05699997 -0.021307407 0.0029782595 4281293146
-0.05699997 -0.022161849 0.0029782595 4281227353
-0.05699997 -0.023016294 0.0029782595 4281227353
-0.05699997 -0.023870738 0.0029782595 4281358939
-0.05699997 -0.024725182 0.0029782595 4281228123
-0.05699997 -0.025579624 0.0029782595 4281228123
-0.05699997 -0.026434068 0.0029782595 4281162330
-0.05699997 -0.027288513 0.0029782595 4281097050
-0.05699997 -0.028142957 0.0029782595 4281097050
-0.05699997 -0.028997401 0.0029782595 4281228123
-0.05699997 -0.029851843 0.0029782595 4281358939
-0.05699997 -0.030706288 0.0029782595 4281162076
-0.05699997 -0.031560734 0.0029782595 4281162076
-0.05699997 -0.032415178 0.0029782595 4281162076
-0.05699997 -0.033269621 0.0029782595 4281162076
-0.05699997 -0.034124065 0.0029782595 4281162076
-0.05699997 -0.034978509 0.0029782595 4281162076
-0.05699997 -0.035832953 0.0029782595 4281227869
-0.05699997 -0.036687396 0.0029782595 4281162076
-0.05699997 -0.03754184 0.0029782595 4281359455
-0.05699997 -0.038396284 0.0029782595 4281227869
-0.05699997 -0.039250728 0.0029782595 4281358939
-0.05699997 -0.040105172 0.0029782595 4281490525
-0.05699997 -0.040959615 0.0029782595 4281358426
-0.05699997 -0.041814059 0.0029782595 4281358426
-0.057999987 -0.042541105 0.0032734962 4281358939
-0.057999987 -0.043392964 0.0032734962 4281293146
-0.057999987 -0.044244826 0.0032734962 4281293146
-0.057999987 -0.045096692 0.0032734962 4281228123
-0.057999987 -0.045948554 0.0032734962 4281228123
-0.057999987 -0.046800416 0.0032734962 4281228123
-0.057999987 -0.047652278 0.0032734962 4281359455
-0.057999987 -0.04850414 0.0032734962 4281162076
-0.057999987 -0.049356006 0.0032734962 4281425248
-0.057999987 -0.050207868 0.0032734962 4281227869
-0.057999987 -0.051059727 0.0032734962 4281359968
-0.057999987 -0.051911589 0.0032734962 4281162589
-0.05699997 -0.052921828 0.0029782595 4281294175
-0.05699997 -0.053776272 0.0029782595 4281163359
-0.05699997 -0.054630715 0.0029782595 4281294945
-0.05699997 -0.055485163 0.0029782595 4281425763
-0.055999983 -0.056508303 0.0026830302 4281227869
-0.055999983 -0.057365328 0.0026830302 4281162076
-0.055999983 -0.058222353 0.0026830302 4281359455
-0.055999983 -0.059079375 0.0026830302 4281623142
-0.055999983 -0.059936401 0.0026830302 4282017900
-0.055999983 -0.060793426 0.0026830302 4282083693
-0.055999983 -0.061650451 0.0026830302 4282215279
-0.053999979 -0.087884463 0.0020925642 4281096033
-0.053999979 -0.088746659 0.0020925642 4281359720
-0.053999979 -0.089608841 0.0020925642 4279123288
-0.052999992 -0.090740405 0.0017973349 4278794323
-0.052999992 -0.091605172 0.0017973349 4279453288
-0.052999992 -0.092469946 0.0017973349 4279453797
-0.052999992 -0.095064253 0.0017973349 4280177259
-0.14599998 0.086737983 0.028629193 4278203257
-0.14599998 0.086113282 0.028629193 4278202743
-0.14599998 0.085488588 0.028629193 4278202743
-0.14399998 0.085569374 0.028033564 4278202743
-0.14399998 0.08493951 0.028033564 4278202743
-0.14299999 0.084657229 0.027735757 4278202743
-0.14299999 0.084024779 0.027735757 4278202743
-0.14299999 0.083392344 0.027735757 4278202743
-0.06599997 0.083990961 0.0048041283 4282016617
-0.06599997 0.08315976 0.0048041283 4282016617
-0.06599997 0.082328543 0.0048041283 4281950824
-0.06599997 0.081497334 0.0048041283 4281819238
-0.064999983 0.080918185 0.0045063212 4281819238
-0.064999983 0.080084391 0.0045063212 4281819238
-0.064999983 0.079250604 0.0045063212 4281753445
-0.064999983 0.078416809 0.0045063212 4281950824
-0.064999983 0.077583015 0.0045063212 4281950824
-0.064999983 0.07674922 0.0045063212 4281753445
-0.064999983 0.075915426 0.0045063212 4281753445
-0.064999983 0.075081639 0.0045063212 4281753445
-0.064999983 0.074247845 0.0045063212 4281753445
-0.064999983 0.07341405 0.0045063212 4281753445
-0.064999983 0.072580256 0.0045063212 4281753445
-0.064999983 0.071746469 0.0045063212 4281687652
-0.064999983 0.070912674 0.0045063212 4281621859
-0.064999983 0.07007888 0.0045063212 4281556836
-0.064999983 0.069245085 0.0045063212 4281556836
-0.064999983 0.068411298 0.0045063212 4281491043
-0.064999983 0.067577504 0.0045063212 4281491043
-0.064999983 0.066743709 0.0045063212 4281491043
-0.064999983 0.065909915 0.0045063212 4281687652
-0.064999983 0.06507612 0.0045063212 4281687652
-0.064999983 0.064242333 0.0045063212 4281687652
-0.063999996 0.063606396 0.004208514 4281687652
-0.063999996 0.062770024 0.004208514 4281687652
-0.063999996 0.061933648 0.004208514 4281491043
-0.063999996 0.061097275 0.004208514 4281491043
-0.063999996 0.060260899 0.004208514 4281491043
-0.063999996 0.059424527 0.004208514 4281556836
-0.063999996 0.058588151 0.004208514 4281556836
-0.063999996 0.057751779 0.004208514 4281556836
-0.063999996 0.056915406 0.004208514 4281622629
-0.063999996 0.056079034 0.004208514 4281622629
-0.063999996 0.055242658 0.004208514 4281622629
-0.062999979 0.054575752 0.0039106919 4281688422
-0.062999979 0.053736795 0.0039106919 4282016617
-0.062999979 0.052897841 0.0039106919 4281885801
-0.062999979 0.052058883 0.0039106919 4281885801
-0.062999979 0.051219929 0.0039106919 4281885801
-0.062999979 0.050380971 0.0039106919 4281885801
-0.062999979 0.049542021 0.0039106919 4281622629
-0.062999979 0.048703063 0.0039106919 4281359457
-0.062999979 0.047864109 0.0039106919 4281359457
-0.061999995 0.04717138 0.003612885 4281227871
-0.061999995 0.046329845 0.003612885 4281227871
-0.062999979 0.04534724 0.0039106919 4281162078
-0.062999979 0.044508286 0.0039106919 4281162078
-0.062999979 0.043669328 0.0039106919 4281227869
-0.062999979 0.042830374 0.0039106919 4281162076
-0.062999979 0.041991416 0.0039106919 4281162076
-0.061999995 0.041280627 0.003612885 4281162076
-0.061999995 0.040439088 0.003612885 4281096283
-0.061999995 0.039597552 0.003612885 4281096283
-0.061999995 0.038756013 0.003612885 4281162076
-0.061999995 0.037914477 0.003612885 4281096283
-0.060999978 0.037188195 0.003315063 4281096283
-0.060999978 0.036344081 0.003315063 4281162076
-0.060999978 0.03549996 0.003315063 4281227869
-0.060999978 0.034655843 0.003315063 4281490271
-0.060999978 0.033811722 0.003315063 4280897875
-0.060999978 0.032967605 0.003315063 4280832082
-0.060999978 0.032123487 0.003315063 4280766289
-0.060999978 0.03127937 0.003315063 4280766289
-0.060999978 0.030435253 0.003315063 4280832082
-0.060999978 0.029591134 0.003315063 4280897875
-0.060999978 0.028747018 0.003315063 4280832082
-0.060999978 0.027902899 0.003315063 4280766289
-0.060999978 0.02705878 0.003315063 4280832082
-0.060999978 0.026214661 0.003315063 4280832082
-0.060999978 0.025370544 0.003315063 4280832082
-0.060999978 0.024526427 0.003315063 4280766289
-0.059999991 0.023756258 0.0030172558 4280700496
-0.059999991 0.022909559 0.0030172558 4280700494
-0.059999991 0.022062859 0.0030172558 4280832080
-0.059999991 0.021216158 0.0030172558 4280832080
-0.059999991 0.020369461 0.0030172558 4280700494
-0.059999991 0.01952276 0.0030172558 4280766287
-0.059999991 0.018676061 0.0030172558 4280832080
-0.059999991 0.017829362 0.0030172558 4280832080
-0.058999974 0.017035963 0.0027194337 4280832080
-0.058999974 0.016186683 0.0027194337 4280897873
-0.058999974 0.015337401 0.0027194337 4280897103
-0.058999974 0.01448812 0.0027194337 4280766287
-0.058999974 0.013638839 0.0027194337 4280832082
-0.057999987 0.012829951 0.0024216266 4280766289
-0.057999987 0.011978089 0.0024216266 4280766289
-0.058999974 0.011090996 0.0027194337 4280897105
-0.058999974 0.010241715 0.0027194337 4280897103
-0.058999974 0.0093924338 0.0027194337 4280897103
-0.058999974 0.0085431524 0.0027194337 4280897103
-0.058999974 0.0076938719 0.0027194337 4280831310
-0.058999974 0.0068445909 0.0027194337 4280831310
-0.058999974 0.0059953099 0.0027194337 4280962896
-0.058999974 0.0051460289 0.0027194337 4280897103
-0.057999987 0.0043113274 0.0024216266 4280897103
-0.057999987 0.0034594652 0.0024216266 4280897103
-0.057999987 0.0026076024 0.0024216266 4280897103
-0.057999987 0.0017557404 0.0024216266 4280897103
-0.057999987 0.00090387795 0.0024216266 4280897103
-0.057999987 5.2015555e-05 0.0024216266 4280832080
-0.057999987 -0.00079984684 0.0024216266 4280897873
-0.057999987 -0.0016517092 0.0024216266 4280700494
-0.057999987 -0.0025035716 0.0024216266 4280832080
-0.05699997 -0.0033640868 0.002123812 4280832080
-0.05699997 -0.0042185304 0.002123812 4280897873
-0.05699997 -0.0050729746 0.002123812 4280766287
-0.05699997 -0.0059274184 0.002123812 4280832080
-0.05699997 -0.0067818621 0.002123812 4280832080
-0.05699997 -0.0076363059 0.002123812 4280700494
-0.05699997 -0.0084907496 0.002123812 4280897873
-0.055999983 -0.0093719158 0.0018259973 4280832080
-0.055999983 -0.010228941 0.0018259973 4281028689
-0.055999983 -0.011085966 0.0018259973 4280962896
-0.055999983 -0.011942992 0.0018259973 4280897103
-0.055999983 -0.012800016 0.0018259973 4280962898
-0.055999983 -0.013657042 0.0018259973 4281028691
-0.055999983 -0.014514067 0.0018259973 4281226070
-0.055999983 -0.015371092 0.0018259973 4281160277
-0.055999983 -0.016228117 0.0018259973 4281095254
-0.055999983 -0.017085141 0.0018259973 4281029461
-0.055999983 -0.017942168 0.0018259973 4281029974
-0.055999983 -0.018799191 0.0018259973 4280964181
-0.055999983 -0.019656217 0.0018259973 4280964181
-0.055999983 -0.020513244 0.0018259973 4280964181
-0.055999983 -0.021370269 0.0018259973 4280964181
-0.055999983 -0.022227293 0.0018259973 4281029461
-0.054999996 -0.023152342 0.0015281901 4280633419
-0.054999996 -0.024011949 0.0015281901 4280699212
-0.055999983 -0.024798369 0.0018259973 4280568138
-0.055999983 -0.025655393 0.0018259973 4280502345
-0.055999983 -0.026512418 0.0018259973 4280436552
-0.055999983 -0.027369443 0.0018259973 4280699724
-0.054999996 -0.028309982 0.0015281901 4280568138
-0.054999996 -0.029169589 0.0015281901 4280568138
-0.055999983 -0.029940519 0.0018259973 4280699464
-0.054999996 -0.030888801 0.0015281901 4280699210
-0.054999996 -0.03174841 0.0015281901 4280896589
-0.054999996 -0.032608017 0.0015281901 4280568138
-0.054999996 -0.033467621 0.0015281901 4280699724
-0.054999996 -0.034327228 0.0015281901 4280568138
-0.054999996 -0.035186835 0.0015281901 4280568138
-0.054999996 -0.036046442 0.0015281901 4280699724
-0.055999983 -0.036796723 0.0018259973 4280699724
-0.055999983 -0.037653748 0.0018259973 4280437322
-0.055999983 -0.038510773 0.0018259973 4280371529
-0.055999983 -0.039367799 0.0018259973 4280699724
-0.055999983 -0.040224824 0.0018259973 4280765517
-0.055999983 -0.041081846 0.0018259973 4280568138
-0.055999983 -0.041938875 0.0018259973 4280568138
-0.05699997 -0.042668507 0.002123812 4280568138
-0.05699997 -0.043522947 0.002123812 4280699724
-0.05699997 -0.04437739 0.002123812 4280568138
-0.05699997 -0.045231834 0.002123812 4280699724
-0.05699997 -0.046086278 0.002123812 4280568138
-0.05699997 -0.046940722 0.002123812 4280502345
-0.05699997 -0.047795165 0.002123812 4280568138
-0.05699997 -0.048649613 0.002123812 4280502345
-0.05699997 -0.049504057 0.002123812 4280699724
-0.05699997 -0.0503585 0.002123812 4280830796
-0.05699997 -0.05121294 0.002123812 4280568138
-0.05699997 -0.052067384 0.002123812 4280699724
-0.055999983 -0.053080201 0.0018259973 4280765517
-0.055999983 -0.053937227 0.0018259973 4280897103
-0.055999983 -0.054794252 0.0018259973 4280765517
-0.054999996 -0.055817395 0.0015281901 4280700494
-0.053999979 -0.056845702 0.0012303755 4280832080
-0.053999979 -0.057707891 0.0012303755 4281029461
-0.053999979 -0.05857008 0.0012303755 4281095254
-0.053999979 -0.059432264 0.0012303755 4281161306
-0.053999979 -0.060294453 0.0012303755 4281819236
-0.052999992 -0.061338246 0.00093256094 4282148201
-0.052999992 -0.062203016 0.00093256094 4282279789
-0.052999992 -0.063067786 0.00093256094 4282280559
-0.052999992 -0.063932553 0.00093256094 4282083180
-0.14599998 0.086737983 0.028004499 4278202999
-0.14599998 0.086113282 0.028004499 4278202745
-0.14599998 0.085488588 0.028004499 4278202745
-0.14599998 0.084863886 0.028004499 4278202745
-0.14499998 0.084589347 0.027704099 4278202745
-0.14299999 0.084657229 0.027103314 4278202745
-0.14299999 0.084024779 0.027103314 4278202745
-0.14299999 0.083392344 0.027103314 4278203257
-0.064999983 0.080918185 0.0036725344 4281752160
-0.064999983 0.080084391 0.0036725344 4281817953
-0.064999983 0.079250604 0.0036725344 4281817953
-0.064999983 0.078416809 0.0036725344 4281817953
-0.064999983 0.077583015 0.0036725344 4281817953
-0.064999983 0.07674922 0.0036725344 4281817953
-0.064999983 0.075915426 0.0036725344 4281621344
-0.064999983 0.075081639 0.0036725344 4281555551
-0.064999983 0.074247845 0.0036725344 4281621344
-0.064999983 0.07341405 0.0036725344 4281621344
-0.064999983 0.072580256 0.0036725344 4281621344
-0.064999983 0.071746469 0.0036725344 4281555551
-0.064999983 0.070912674 0.0036725344 4281423965
-0.064999983 0.07007888 0.0036725344 4281555551
-0.064999983 0.069245085 0.0036725344 4281555551
-0.064999983 0.068411298 0.0036725344 4281358172
-0.064999983 0.067577504 0.0036725344 4281423965
-0.064999983 0.066743709 0.0036725344 4281291863
-0.064999983 0.065909915 0.0036725344 4281488728
-0.063999996 0.065279141 0.0033721419 4281554521
-0.063999996 0.064442776 0.0033721419 4281423449
-0.063999996 0.063606396 0.0033721419 4281423449
-0.063999996 0.062770024 0.0033721419 4281358172
-0.063999996 0.061933648 0.0033721419 4281358172
-0.063999996 0.061097275 0.0033721419 4281358172
-0.063999996 0.060260899 0.0033721419 4281358172
-0.062999979 0.05960948 0.0030717419 4281423965
-0.062999979 0.058770526 0.0030717419 4281423965
-0.062999979 0.057931568 0.0030717419 4281555551
-0.063999996 0.056915406 0.0033721419 4281752930
-0.063999996 0.056079034 0.0033721419 4281687137
-0.062999979 0.055414706 0.0030717419 4281818723
-0.062999979 0.054575752 0.0030717419 4281884516
-0.062999979 0.053736795 0.0030717419 4282147688
-0.062999979 0.052897841 0.0030717419 4282279789
