# .PCD v0.7 - Point Cloud Data file format
VERSION 0.7
FIELDS x y z rgb
SIZE 4 4 4 4
TYPE F F F U
COUNT 1 1 1 1
WIDTH 1039
HEIGHT 1
VIEWPOINT 0 0 0 1 0 0 0
POINTS 1039
DATA ascii
0.10232746 -0.2166422 -0.17783006 4286077453
0.10232746 -0.21497294 -0.17783006 4286406418
0.10232746 -0.21330369 -0.17783006 4286405668
0.10250872 -0.2111378 -0.17678002 4286864674
0.10250872 -0.20947117 -0.17678002 4286667543
0.10250872 -0.20780453 -0.17678002 4286338832
0.10250872 -0.20613787 -0.17678002 4286273039
0.10250872 -0.2044712 -0.17678002 4286077205
0.10232746 -0.20328817 -0.17783006 4286208028
0.10232746 -0.20161894 -0.17783006 4285945115
0.10232746 -0.19994968 -0.17783006 4285616150
0.10232746 -0.19828042 -0.17783006 4285877789
0.10250872 -0.19613793 -0.17678002 4286140951
0.10250872 -0.1944713 -0.17678002 4285487385
0.10268998 -0.19233665 -0.17572998 4285159962
0.10268998 -0.19067258 -0.17572998 4285683730
0.10268998 -0.18900853 -0.17572998 4286010377
0.10287125 -0.18688425 -0.17467995 4285747975
0.10287125 -0.1852228 -0.17467995 4285159685
0.10287125 -0.18356135 -0.17467995 4285422090
0.10287125 -0.18189991 -0.17467995 4285422090
0.10305253 -0.17978859 -0.17362985 4286142985
0.10287125 -0.17857701 -0.17467995 4286275336
0.10287125 -0.17691556 -0.17467995 4286143235
0.10268998 -0.1756961 -0.17572998 4286143235
0.10268998 -0.17403206 -0.17572998 4286142469
0.10268998 -0.17236802 -0.17572998 4285881109
0.10287125 -0.17026973 -0.17467995 4285552408
0.10287125 -0.16860828 -0.17467995 4285815314
0.12299174 -0.10834232 -0.058124691 4287376128
0.12281047 -0.10737512 -0.059174787 4287179523
0.12262921 -0.1064027 -0.060224824 4287048966
0.12262921 -0.10502467 -0.060224824 4286851587
0.12244794 -0.10404442 -0.061274853 4287177216
0.12244794 -0.10266379 -0.061274853 4286981122
0.12226668 -0.10167576 -0.062324889 4287245062
0.12208541 -0.10068257 -0.063374981 4287179269
0.12190415 -0.099684149 -0.064425021 4287572487
0.12172288 -0.098680511 -0.065475047 4287310087
0.12172288 -0.097289473 -0.065475047 4286916097
0.12154162 -0.096278042 -0.066525087 4286851841
0.12154162 -0.094884411 -0.066525087 4286917634
0.12154162 -0.09349075 -0.066525087 4287115011
0.12154162 -0.092097118 -0.066525087 4287311872
0.12154162 -0.090703472 -0.066525087 4287507200
0.12172288 -0.088943213 -0.065475047 4287441408
0.12172288 -0.087552175 -0.065475047 4287441152
0.12190415 -0.085799694 -0.064425021 4287180032
0.12190415 -0.084411263 -0.064425021 4287115011
0.12208541 -0.082666606 -0.063374981 4287049220
0.12208541 -0.081280768 -0.063374981 4287049220
0.12208541 -0.079894915 -0.063374981 4287245827
0.12226668 -0.078160629 -0.062324889 4286721548
0.12226668 -0.076777399 -0.062324889 4285609731
0.10287125 -0.10713457 -0.17467995 4285545480
0.10287125 -0.10547313 -0.17467995 4285086726
0.10287125 -0.10381168 -0.17467995 4284563203
0.10268998 -0.10247783 -0.17572998 4284105480
0.10268998 -0.10081378 -0.17572998 4283776513
0.10268998 -0.099149734 -0.17572998 4283776513
0.10268998 -0.097485691 -0.17572998 4283972356
0.10268998 -0.095821619 -0.17572998 4283907079
0.10268998 -0.094157577 -0.17572998 4283907077
0.10250872 -0.09280555 -0.17678002 4283775491
0.10250872 -0.091138899 -0.17678002 4283447561
0.10268998 -0.089165404 -0.17572998 4282659594
0.10268998 -0.087501362 -0.17572998 4283907862
0.10268998 -0.085837319 -0.17572998 4283382036
0.10287125 -0.083874255 -0.17467995 4283382036
0.10305253 -0.081916377 -0.17362985 4282923280
0.10305253 -0.080257505 -0.17362985 4282464266
0.10341504 -0.078016222 -0.17152978 4282791944
0.10341504 -0.07636258 -0.17152978 4282529807
0.10377759 -0.074136883 -0.16942966 4282727186
0.10395885 -0.072204992 -0.16837962 4282462729
0.10432138 -0.069997519 -0.16627955 4282463233
0.10450263 -0.068078652 -0.16522953 4282856455
0.13441147 -0.0040367735 0.0080282176 4281021735
0.13441147 -0.0028277379 0.0080282176 4279645757
0.13423021 -0.0018527103 0.0069781817 4279580741
0.13404894 -0.00087248947 0.0059281532 4279646534
0.13386768 0.00011292429 0.0048780837 4279254094
0.13368641 0.001103546 0.003828055 4278796110
0.13350515 0.0020993683 0.0027779855 4279054917
0.13332388 0.0031003836 0.0017279568 4279252296
0.13314262 0.0041066068 0.00067788741 4279450186
0.13314262 0.0053338367 0.00067788741 4279185985
0.13296135 0.0063478681 -0.00037214131 4279382335
0.13314262 0.0077883187 0.00067788741 4279578431
0.13314262 0.0090155564 0.00067788741 4279710017
0.13314262 0.010242794 0.00067788741 4279972419
0.13314262 0.011470031 0.00067788741 4280103745
0.13332388 0.012897495 0.0017279568 4279578431
0.13332388 0.014122125 0.0017279568 4279381052
0.13332388 0.015346769 0.0017279568 4279513923
0.13332388 0.016571406 0.0017279568 4279252807
0.13332388 0.017796043 0.0017279568 4279121993
0.13332388 0.01902068 0.0017279568 4279447106
0.13314262 0.020060699 0.00067788741 4279644485
0.13314262 0.021287937 0.00067788741 4279776071
0.13296135 0.022335764 -0.00037214131 4279972937
0.13259882 0.023211967 -0.0024722393 4279907657
0.13223629 0.024098564 -0.0045723375 4279776071
0.13205503 0.025167193 -0.0056223734 4279513669
0.13151121 0.025902975 -0.0087725334 4279776071
0.13114868 0.02682079 -0.010872599 4281807672
0.13078615 0.027748991 -0.012972697 4284242013
0.13024236 0.028526377 -0.016122865 4294962309
0.13006109 0.029636603 -0.017172894 4290028074
0.12969856 0.030596014 -0.019272991 4283646475
0.1041401 0.015170727 -0.16732959 4282660621
0.10395885 0.016670961 -0.16837962 4282463242
0.10377759 0.018176388 -0.16942966 4282593801
0.10341504 0.01954921 -0.17152978 4282396676
0.10323378 0.021067645 -0.17257982 4282134531
0.10305253 0.022591289 -0.17362985 4282002691
0.10287125 0.024120111 -0.17467995 4281805312
0.10268998 0.025654156 -0.17572998 4281804803
0.10268998 0.027318206 -0.17572998 4281607683
0.10268998 0.028982256 -0.17572998 4281346312
0.10287125 0.030765917 -0.17467995 4281346312
0.10305253 0.032544393 -0.17362985 4281870092
0.10323378 0.034317661 -0.17257982 4281672965
0.10341504 0.036085721 -0.17152978 4281148417
0.10377759 0.037957806 -0.16942966 4281672704
0.10395885 0.039712872 -0.16837962 4281672704
0.1041401 0.041462738 -0.16732959 4281344000
0.1041401 0.043105993 -0.16732959 4281212928
0.10450263 0.044946868 -0.16522953 4281475845
0.10450263 0.046584915 -0.16522953 4281344261
0.10450263 0.048222966 -0.16522953 4281212675
0.10450263 0.049861018 -0.16522953 4281408256
0.12208541 0.076705359 -0.063374981 4289095936
0.12208541 0.078091204 -0.063374981 4289359108
0.12190415 0.079425037 -0.064425021 4289884160
0.12190415 0.080813475 -0.064425021 4290278915
0.12190415 0.08220192 -0.064425021 4290081792
0.12190415 0.083590366 -0.064425021 4290016000
0.12190415 0.084978804 -0.064425021 4289884416
0.12172288 0.086328238 -0.065475047 4290212352
0.12172288 0.087719284 -0.065475047 4290212352
0.12172288 0.089110322 -0.065475047 4290016000
0.12154162 0.090470158 -0.066525087 4290081792
0.12154162 0.091863796 -0.066525087 4290081792
0.12154162 0.093257442 -0.066525087 4290016000
0.12154162 0.094651088 -0.066525087 4290081536
0.12172288 0.096065544 -0.065475047 4289884416
0.12172288 0.097456582 -0.065475047 4290016000
0.12172288 0.098847628 -0.065475047 4289885184
0.12172288 0.10023867 -0.065475047 4289884416
0.12172288 0.10162971 -0.065475047 4290081792
0.12172288 0.10302076 -0.065475047 4290147328
0.12172288 0.1044118 -0.065475047 4290147328
0.12172288 0.10580284 -0.065475047 4290147584
0.12172288 0.10719389 -0.065475047 4290081536
0.12172288 0.10858493 -0.065475047 4290147328
0.12172288 0.10997597 -0.065475047 4289950977
0.12172288 0.11136702 -0.065475047 4289885184
0.12172288 0.11275806 -0.065475047 4290016000
0.12172288 0.1141491 -0.065475047 4290081536
0.12172288 0.11554015 -0.065475047 4290080768
0.12172288 0.11693119 -0.065475047 4289949184
0.12172288 0.11832223 -0.065475047 4289753600
0.12154162 0.11973666 -0.066525087 4288503808
0.12154162 0.12113031 -0.066525087 4288900099
0.10087732 0.12916325 -0.18623044 4288310531
0.10087732 0.13085331 -0.18623044 4287652608
0.10087732 0.13254336 -0.18623044 4286800128
0.10087732 0.13423342 -0.18623044 4286341131
0.10087732 0.13592346 -0.18623044 4285749775
0.10087732 0.13761352 -0.18623044 4285682695
0.10105859 0.13925418 -0.18518041 4285880074
0.10123987 0.14088964 -0.18413031 4285947139
0.10142113 0.14251991 -0.18308027 4285946119
0.10160238 0.14414497 -0.18203025 4286143500
0.10160238 0.14582461 -0.18203025 4286078988
0.10178366 0.14744188 -0.18098021 4285750023
0.10196491 0.14905395 -0.17993018 4285883397
0.10196491 0.15072839 -0.17993018 4286013184
0.10196491 0.15240285 -0.17993018 4285947392
0.10196491 0.15407729 -0.17993018 4286144268
0.10196491 0.15575175 -0.17993018 4286012682
0.10196491 0.15742621 -0.17993018 4286077192
0.10196491 0.15910065 -0.17993018 4286208780
0.10196491 0.16077511 -0.17993018 4286076692
0.10196491 0.16244955 -0.17993018 4286405657
0.10178366 0.16421241 -0.18098021 4286076442
0.10178366 0.16588946 -0.18098021 4286536219
0.10178366 0.16756651 -0.18098021 4286799370
0.10178366 0.16924356 -0.18098021 4286276619
0.10160238 0.17101941 -0.18203025 4286737170
0.10160238 0.17269905 -0.18203025 4285947404
0.10160238 0.17437871 -0.18203025 4286011149
0.10142113 0.17616495 -0.18308027 4286602768
0.10142113 0.17784721 -0.18308027 4286142217
0.10123987 0.17964125 -0.18413031 4286669583
0.10123987 0.18132609 -0.18413031 4286145043
0.10105859 0.18312795 -0.18518041 4286538510
0.10105859 0.18481541 -0.18518041 4286669059
0.10087732 0.18662505 -0.18623044 4286471680
0.10105859 0.1881903 -0.18518041 4286537475
0.10105859 0.18987776 -0.18518041 4286209032
0.10123987 0.1914352 -0.18413031 4286339594
0.10123987 0.19312006 -0.18413031 4286604549
0.10123987 0.19480491 -0.18413031 4286012416
0.10142113 0.19635198 -0.18308027 4286471682
0.10142113 0.19803423 -0.18308027 4285947904
0.10160238 0.19957349 -0.18203025 4286146317
0.10160238 0.20125315 -0.18203025 4286343696
0.10160238 0.20293279 -0.18203025 4286603797
0.10160238 0.20461245 -0.18203025 4287063053
0.10142113 0.20644549 -0.18308027 4287194380
0.10142113 0.20812774 -0.18308027 4286602514
0.10142113 0.20980999 -0.18308027 4286602514
0.10142113 0.21149226 -0.18308027 4286669579
0.10142113 0.21317449 -0.18308027 4286211592
0.10142113 0.21485676 -0.18308027 4286406657
0.10142113 0.216539 -0.18308027 4286603536
0.10142113 0.21822125 -0.18308027 4286603536
0.10160238 0.21972932 -0.18203025 4287392770
0.10160238 0.22140896 -0.18203025 4287589638
0.10160238 0.22308862 -0.18203025 4287326727
0.10160238 0.22476827 -0.18203025 4287392520
0.10160238 0.22644792 -0.18203025 4287326977
0.10160238 0.22812757 -0.18203025 4287457024
0.10178366 0.22961743 -0.18098021 4287784704
0.10178366 0.23129448 -0.18098021 4287652864
0.10178366 0.23297153 -0.18098021 4287718656
0.10178366 0.23464859 -0.18098021 4287194889
0.10178366 0.23632565 -0.18098021 4286998544
0.10178366 0.23800269 -0.18098021 4287065604
0.10178366 0.23967974 -0.18098021 4286408457
0.10178366 0.2413568 -0.18098021 4286737422
0.10178366 0.24303384 -0.18098021 4286866460
0.10196491 0.24449772 -0.17993018 4287390739
0.10178366 0.24638794 -0.18098021 4286996751
0.10196491 0.24784662 -0.17993018 4287260434
0.10196491 0.24952106 -0.17993018 4287326227
0.10178366 0.25141913 -0.18098021 4287129880
0.10178366 0.25309616 -0.18098021 4287195155
0.10178366 0.25477323 -0.18098021 4287589647
0.10178366 0.25645027 -0.18098021 4287392268
0.10178366 0.25812733 -0.18098021 4287128337
0.10178366 0.25980437 -0.18098021 4287587335
0.10160238 0.26172063 -0.18203025 4287784980
0.10160238 0.26340029 -0.18203025 4287260686
0.10160238 0.26507992 -0.18203025 4287129100
0.10160238 0.26675957 -0.18203025 4287195657
0.10160238 0.26843923 -0.18203025 4287260423
0.10160238 0.27011889 -0.18203025 4288375556
0.10160238 0.27179852 -0.18203025 4288308480
0.10160238 0.27347818 -0.18203025 4289097996
0.10160238 0.27515784 -0.18203025 4288179208
0.10160238 0.2768375 -0.18203025 4288377621
0.10160238 0.27851716 -0.18203025 4287917572
0.10142113 0.28046459 -0.18308027 4287983365
0.10123987 0.28241724 -0.18413031 4288180755
0.10123987 0.28410208 -0.18413031 4287982093
0.10123987 0.28578696 -0.18413031 4287390978
0.10123987 0.2874718 -0.18413031 4287195657
0.10087732 0.28971824 -0.18623044 4287195657
0.10069606 0.29169169 -0.18728048 4286538508
0.10069606 0.29338434 -0.18728048 4287984405
0.10051481 0.2953656 -0.18833052 4287654679
0.10051481 0.29875612 -0.18833052 4288642599
0.10395208 -0.267804 -0.17761335 4284628996
0.10377306 -0.26671973 -0.17866467 4284168193
0.10377306 -0.2650505 -0.17866467 4284497421
0.10377306 -0.26338124 -0.17866467 4284827152
0.10377306 -0.26171198 -0.17866467 4285288209
0.10377306 -0.26004276 -0.17866467 4283643392
0.10377306 -0.2583735 -0.17866467 4284235780
0.10377306 -0.25670424 -0.17866467 4284761109
0.10377306 -0.25503501 -0.17866467 4284757513
0.10359406 -0.25392735 -0.17971601 4284296962
0.10341504 -0.25281453 -0.1807674 4284561415
0.10341504 -0.25114009 -0.1807674 4285089295
0.10341504 -0.24946564 -0.1807674 4284036870
0.10341504 -0.2477912 -0.1807674 4285284886
0.10341504 -0.24611676 -0.1807674 4284100612
0.10341504 -0.24444231 -0.1807674 4284628744
0.10341504 -0.24276787 -0.1807674 4283971075
0.10341504 -0.2410934 -0.1807674 4283184128
0.10359406 -0.23888066 -0.17971601 4283315714
0.10359406 -0.23720881 -0.17971601 4283184128
0.10359406 -0.23553696 -0.17971601 4282919424
0.10359406 -0.23386514 -0.17971601 4283707399
0.10359406 -0.23219329 -0.17971601 4284364036
0.10359406 -0.23052144 -0.17971601 4284298243
0.10359406 -0.22884959 -0.17971601 4283773184
0.10341504 -0.22769779 -0.1807674 4283642112
0.10359406 -0.22550589 -0.17971601 4283710218
0.10359406 -0.22383401 -0.17971601 4283512841
0.10359406 -0.22216216 -0.17971601 4283249669
0.10359406 -0.22049031 -0.17971601 4283577096
0.10377306 -0.21831143 -0.17866467 4283248899
0.10377306 -0.2166422 -0.17866467 4283446278
0.10377306 -0.21497294 -0.17866467 4283380485
0.10377306 -0.21330369 -0.17866467 4284432659
0.10377306 -0.21163443 -0.17866467 4285548826
0.10377306 -0.2099652 -0.17866467 4285088775
0.10395208 -0.20780453 -0.17761335 4284234497
0.10377306 -0.20662668 -0.17866467 4284431876
0.10377306 -0.20495743 -0.17866467 4284366603
0.10377306 -0.20328817 -0.17866467 4284432144
0.10377306 -0.20161894 -0.17866467 4284102663
0.10377306 -0.19994968 -0.17866467 4283971077
0.10377306 -0.19828042 -0.17866467 4283970058
0.10377306 -0.19661117 -0.17866467 4284431628
0.10395208 -0.1944713 -0.17761335 4282395648
0.10395208 -0.19280466 -0.17761335 4282265088
0.1041311 -0.19067258 -0.17656201 4283317776
0.10431011 -0.1885457 -0.17551067 4284171019
0.10448913 -0.18642402 -0.17445928 4283448064
0.10448913 -0.18476516 -0.17445928 4283054080
0.10448913 -0.1831063 -0.17445928 4283513089
0.10448913 -0.18144745 -0.17445928 4283513089
0.10448913 -0.17978859 -0.17445928 4283707904
0.10448913 -0.17812976 -0.17445928 4284232964
0.10448913 -0.17647091 -0.17445928 4283840257
0.10448913 -0.17481205 -0.17445928 4283445504
0.10431011 -0.17359263 -0.17551067 4283510274
0.12418066 -0.10834232 -0.058811113 4287113728
0.12400163 -0.10737512 -0.059862506 4287113728
0.12400163 -0.10599968 -0.059862506 4286588672
0.12382261 -0.10502467 -0.060913838 4286588672
0.12364361 -0.10404442 -0.061965171 4286784512
0.12364361 -0.10266379 -0.061965171 4287046915
0.12346461 -0.10167576 -0.063016511 4286981122
0.12328558 -0.10068257 -0.0640679 4286915329
0.12328558 -0.099296719 -0.0640679 4287440388
0.12310656 -0.098295689 -0.065119237 4287375362
0.12292755 -0.097289473 -0.066170566 4287113476
0.12292755 -0.095898435 -0.066170566 4286720256
0.12292755 -0.094507381 -0.066170566 4286851840
0.12274854 -0.09349075 -0.067221902 4286983424
0.12274854 -0.092097118 -0.067221902 4287047936
0.12274854 -0.090703472 -0.067221902 4287177984
0.12292755 -0.088943213 -0.066170566 4287112192
0.12292755 -0.087552175 -0.066170566 4287441153
0.12310656 -0.085799694 -0.065119237 4287376130
0.12328558 -0.084052444 -0.0640679 4287311109
0.12328558 -0.082666606 -0.0640679 4287245829
0.12328558 -0.081280768 -0.0640679 4287311622
0.12346461 -0.079543874 -0.063016511 4287245064
0.12346461 -0.078160629 -0.063016511 4286917389
0.12364361 -0.076431572 -0.061965171 4286001668
0.12364361 -0.075050935 -0.061965171 4285347590
0.1041311 -0.10746999 -0.17656201 4285150211
0.10431011 -0.10547313 -0.17551067 4284296448
0.10431011 -0.10381168 -0.17551067 4282786816
0.1041311 -0.10247783 -0.17656201 4282593024
0.1041311 -0.10081378 -0.17656201 4282329600
0.1041311 -0.099149734 -0.17656201 4282790147
0.1041311 -0.097485691 -0.17656201 4282526208
0.10395208 -0.096138835 -0.17761335 4282395904
0.10395208 -0.094472185 -0.17761335 4282461186
0.10377306 -0.093117565 -0.17866467 4281869828
0.10377306 -0.091448307 -0.17866467 4281804035
0.10377306 -0.089779049 -0.17866467 4281673478
0.10377306 -0.088109791 -0.17866467 4281739271
0.10377306 -0.086440548 -0.17866467 4281934853
0.10395208 -0.084472284 -0.17761335 4282066439
0.10395208 -0.082805634 -0.17761335 4282065926
0.1041311 -0.080845162 -0.17656201 4281672711
0.10431011 -0.078889892 -0.17551067 4281804297
0.10448913 -0.076939806 -0.17445928 4281607431
0.10502616 -0.071120799 -0.17130528 4281934592
0.13563754 -0.0050039855 0.0084750662 4281739021
0.13563754 -0.0037975502 0.0084750662 4281217581
0.13545853 -0.0028277379 0.0074237003 4279907650
0.13527951 -0.0018527103 0.0063723675 4279777868
0.13527951 -0.00064107444 0.0063723675 4279646282
0.1351005 0.00034174652 0.0053210352 4279385680
0.13492148 0.0013297605 0.0042696693 4279188301
0.13474247 0.00232299 0.0032183367 4279448391
0.13456346 0.0033213976 0.0021669709 4279645770
0.13456346 0.0045434418 0.0021669709 4279449673
0.13438444 0.0055496576 0.0011156383 4279448643
0.13438444 0.0067743021 0.0011156383 4279513923
0.13438444 0.0079989396 0.0011156383 4279513151
0.13438444 0.0092235766 0.0011156383 4279710530
0.13438444 0.010448214 0.0011156383 4280168253
0.13438444 0.011672851 0.0011156383 4280101945
0.13438444 0.012897495 0.0011156383 4280037952
0.13438444 0.014122125 0.0011156383 4279840573
0.13438444 0.015346769 0.0011156383 4279515468
0.13456346 0.016763818 0.0021669709 4278600276
0.13438444 0.017796043 0.0011156383 4278731348
0.13456346 0.019207891 0.0021669709 4279119940
0.13438444 0.020245325 0.0011156383 4279185733
0.13420543 0.021287937 6.427247e-05 4279579462
0.13402641 0.022335764 -0.00098706002 4279973191
0.13366839 0.023211967 -0.0030897583 4280105036
0.13348937 0.024272781 -0.0041410909 4279841864
0.13313134 0.025167193 -0.0062437891 4279513923
0.13277332 0.026071992 -0.0083464878 4279579462
0.13223627 0.02682079 -0.011500519 4280825670
0.13187826 0.027748991 -0.013603217 4280694084
0.1313412 0.028526377 -0.016757281 4293382293
0.1311622 0.029636603 -0.017808614 4294963826
0.13080417 0.030596014 -0.019911312 4286472965
0.10556321 0.013527472 -0.16815121 4286472965
0.10520518 0.014879499 -0.17025387 4282001666
0.10502616 0.016384918 -0.17130528 4281935873
0.10484715 0.017895553 -0.17235661 4281409793
0.10448913 0.019273583 -0.17445928 4281278720
0.10448913 0.020932432 -0.17445928 4281344513
0.1041311 0.022326048 -0.17656201 4281015296
0.1041311 0.023990098 -0.17656201 4281081088
0.10377306 0.025399331 -0.17866467 4280687616
0.10395208 0.027193386 -0.17761335 4280621824
0.10395208 0.028860044 -0.17761335 4280424708
0.1041311 0.030646306 -0.17656201 4280687880
0.1041311 0.032310355 -0.17656201 4281146630
0.10448913 0.034203243 -0.17445928 4281211648
0.10466814 0.03597391 -0.17340794 4280687104
0.10484715 0.037739377 -0.17235661 4280817920
0.10520518 0.039606262 -0.17025387 4280817920
0.10520518 0.04125471 -0.17025387 4280883712
0.10556321 0.043105993 -0.16815121 4280817920
0.10556321 0.044749241 -0.16815121 4281015298
0.10574222 0.046488702 -0.16709988 4281081091
0.10574222 0.048129354 -0.16709988 4280883712
0.10574222 0.049770005 -0.16709988 4281014272
0.10574222 0.051410656 -0.16709988 4280817152
0.12328558 0.075319521 -0.0640679 4289293828
0.12328558 0.076705359 -0.0640679 4289818624
0.12328558 0.078091204 -0.0640679 4290014976
0.12328558 0.079477049 -0.0640679 4290212352
0.12310656 0.080813475 -0.065119237 4289884160
0.12310656 0.08220192 -0.065119237 4290016000
0.12310656 0.083590366 -0.065119237 4290081793
0.12310656 0.084978804 -0.065119237 4289884416
0.12310656 0.086367249 -0.065119237 4290014976
0.12292755 0.087719284 -0.066170566 4290212352
0.12292755 0.089110322 -0.066170566 4289949952
0.12274854 0.090470158 -0.067221902 4290081792
0.12274854 0.091863796 -0.067221902 4290016000
0.12274854 0.093257442 -0.067221902 4290213120
0.12292755 0.094674498 -0.066170566 4290081536
0.12274854 0.096044727 -0.067221902 4289884416
0.12292755 0.097456582 -0.066170566 4290016000
0.12292755 0.098847628 -0.066170566 4290016000
0.12292755 0.10023867 -0.066170566 4290016000
0.12292755 0.10162971 -0.066170566 4290081793
0.12292755 0.10302076 -0.066170566 4290147328
0.12292755 0.1044118 -0.066170566 4290213120
0.12292755 0.10580284 -0.066170566 4290213120
0.12292755 0.10719389 -0.066170566 4290081536
0.12310656 0.10858234 -0.065119237 4290213120
0.12310656 0.10997079 -0.065119237 4290147584
0.12292755 0.11136702 -0.066170566 4290016000
0.12292755 0.11275806 -0.066170566 4290016000
0.12292755 0.1141491 -0.066170566 4290081536
0.12292755 0.11554015 -0.066170566 4290212352
0.12292755 0.11693119 -0.066170566 4290278144
0.12292755 0.11832223 -0.066170566 4290016000
0.12292755 0.11971328 -0.066170566 4289818624
0.12274854 0.12113031 -0.067221902 4290016266
0.12274854 0.12252395 -0.067221902 4288898818
0.10251996 0.12912947 -0.18602413 4288898818
0.10251996 0.13081692 -0.18602413 4288964611
0.10234096 0.13254336 -0.18707547 4286928896
0.10234096 0.13423342 -0.18707547 4285749260
0.10251996 0.13587928 -0.18602413 4285224213
0.10251996 0.13756673 -0.18602413 4284961552
0.10251996 0.13925418 -0.18602413 4284829966
0.10269899 0.14088964 -0.18497273 4285028619
0.102878 0.14251991 -0.1839214 4285158670
0.10305701 0.14414497 -0.18287008 4285486099
0.10305701 0.14582461 -0.18287008 4285684242
0.10323603 0.14744188 -0.18181874 4285618449
0.10341504 0.14905395 -0.1807674 4285292554
0.10341504 0.15072839 -0.1807674 4285619201
0.10341504 0.15240285 -0.1807674 4285486592
0.10341504 0.15407729 -0.1807674 4285880846
0.10341504 0.15575175 -0.1807674 4285880846
0.10341504 0.15742621 -0.1807674 4285814283
0.10341504 0.15910065 -0.1807674 4285945356
0.10341504 0.16077511 -0.1807674 4285682963
0.10341504 0.16244955 -0.1807674 4285946135
0.10341504 0.16412401 -0.1807674 4285815066
0.10341504 0.16579847 -0.1807674 4285814551
0.10341504 0.16747291 -0.1807674 4286076944
0.10323603 0.16924356 -0.18181874 4285815566
0.10323603 0.17092061 -0.18181874 4285683980
0.10323603 0.17259766 -0.18181874 4285422355
0.10305701 0.17437871 -0.18287008 4285553176
0.10305701 0.17605835 -0.18287008 4285749523
0.102878 0.17784721 -0.1839214 4285683730
0.10269899 0.17964125 -0.18497273 4285946637
0.10269899 0.18132609 -0.18497273 4285488396
0.10269899 0.18301095 -0.18497273 4285946889
0.10251996 0.18481541 -0.18602413 4285815557
0.10251996 0.18650286 -0.18602413 4285881350
0.10251996 0.1881903 -0.18602413 4286077707
0.10251996 0.18987776 -0.18602413 4286012434
0.10251996 0.1915652 -0.18602413 4285685266
0.10269899 0.19312006 -0.18497273 4285750287
0.10269899 0.19480491 -0.18497273 4285618701
0.10269899 0.19648977 -0.18497273 4285947152
0.102878 0.19803423 -0.1839214 4285816834
0.102878 0.19971648 -0.1839214 4285948938
0.102878 0.20139873 -0.1839214 4285883145
0.10305701 0.20293279 -0.18287008 4286340625
0.102878 0.20476323 -0.1839214 4286537997
0.102878 0.20644549 -0.1839214 4286734606
0.102878 0.20812774 -0.1839214 4286406168
0.10269899 0.20996858 -0.18497273 4286340375
0.10269899 0.21165344 -0.18497273 4285947918
0.10269899 0.21333829 -0.18497273 4285752074
0.102878 0.21485676 -0.1839214 4285882113
0.102878 0.216539 -0.1839214 4286012434
0.10305701 0.21804966 -0.18287008 4286012434
0.10305701 0.21972932 -0.18287008 4286144533
0.10305701 0.22140896 -0.18287008 4286340625
0.10305701 0.22308862 -0.18287008 4286144533
0.10305701 0.22476827 -0.18287008 4286407692
0.10305701 0.22644792 -0.18287008 4286341899
0.10305701 0.22812757 -0.18287008 4286472202
0.10305701 0.22980723 -0.18287008 4286603018
0.10323603 0.23129448 -0.18181874 4286471430
0.10323603 0.23297153 -0.18181874 4286471430
0.10323603 0.23464859 -0.18181874 4286406157
0.10323603 0.23632565 -0.18181874 4286341908
0.10341504 0.2377999 -0.1807674 4286144781
0.10323603 0.23967974 -0.18181874 4286079504
0.10323603 0.2413568 -0.18181874 4286276883
0.10341504 0.24282326 -0.1807674 4285948688
0.10341504 0.24449772 -0.1807674 4286145295
0.10341504 0.24617216 -0.1807674 4286341658
0.10341504 0.24784662 -0.1807674 4286537493
0.10323603 0.24974206 -0.18181874 4286537493
0.10323603 0.25141913 -0.18181874 4286800665
0.10323603 0.25309616 -0.18181874 4286735385
0.10323603 0.25477323 -0.18181874 4286671125
0.10323603 0.25645027 -0.18181874 4286736918
0.10305701 0.25836131 -0.18287008 4286604049
0.10305701 0.26004097 -0.18287008 4286932231
0.10305701 0.26172063 -0.18287008 4286997778
0.10305701 0.26340029 -0.18287008 4286867473
0.10305701 0.26507992 -0.18287008 4286538508
0.10305701 0.26675957 -0.18287008 4286605321
0.10305701 0.26843923 -0.18287008 4286668809
0.102878 0.27037108 -0.1839214 4287129364
0.102878 0.27205333 -0.1839214 4287128335
0.102878 0.27373558 -0.1839214 4287194128
0.10305701 0.27515784 -0.18287008 4286604301
0.10305701 0.2768375 -0.18287008 4286669579
0.102878 0.27878234 -0.1839214 4286604040
0.102878 0.28046459 -0.1839214 4286867212
0.10521868 -0.26838902 -0.1794993 4283774979
0.10521868 -0.26671973 -0.1794993 4283905032
0.10521868 -0.2650505 -0.1794993 4283774477
0.10521868 -0.26338124 -0.1794993 4283183887
0.10521868 -0.26171198 -0.1794993 4282985993
0.10521868 -0.26004276 -0.1794993 4282854407
0.10521868 -0.2583735 -0.1794993 4283052290
0.10504192 -0.25727108 -0.18055193 4283181579
0.10486515 -0.25616348 -0.18160462 4283639309
0.10486515 -0.254489 -0.18160462 4283770895
0.10486515 -0.25281453 -0.18160462 4282853639
0.10486515 -0.25114009 -0.18160462 4283313161
0.10486515 -0.24946564 -0.18160462 4282854411
0.10486515 -0.2477912 -0.18160462 4282788364
0.10486515 -0.24611676 -0.18160462 4282788364
0.10486515 -0.24444231 -0.18160462 4283248647
0.10486515 -0.24276787 -0.18160462 4282723586
0.10486515 -0.2410934 -0.18160462 4282461699
0.10486515 -0.23941892 -0.18160462 4282461699
0.10486515 -0.23774448 -0.18160462 4282657795
0.10486515 -0.23607004 -0.18160462 4283050504
0.10486515 -0.23439559 -0.18160462 4282721801
0.10486515 -0.23272112 -0.18160462 4283445001
0.10486515 -0.23104668 -0.18160462 4283510794
0.10486515 -0.22937223 -0.18160462 4283246850
0.10486515 -0.22769779 -0.18160462 4283050241
0.10486515 -0.22602335 -0.18160462 4282921483
0.10486515 -0.22434884 -0.18160462 4282724367
0.10486515 -0.2226744 -0.18160462 4282592781
0.10504192 -0.22049031 -0.18055193 4282985995
0.10504192 -0.21881846 -0.18055193 4282592518
0.10504192 -0.21714661 -0.18055193 4282920967
0.10521868 -0.21497294 -0.1794993 4282920967
0.10504192 -0.2138029 -0.18055193 4282723084
0.10521868 -0.21163443 -0.1794993 4283050506
0.10521868 -0.2099652 -0.1794993 4282985473
0.10521868 -0.20829594 -0.1794993 4282591237
0.10521868 -0.20662668 -0.1794993 4282525444
0.10521868 -0.20495743 -0.1794993 4282722573
0.10521868 -0.20328817 -0.1794993 4282722055
0.10521868 -0.20161894 -0.1794993 4282458881
0.10521868 -0.19994968 -0.1794993 4282787846
0.10521868 -0.19828042 -0.1794993 4282262787
0.10521868 -0.19661117 -0.1794993 4282264066
0.10539544 -0.1944713 -0.17844667 4282002178
0.10557219 -0.19233665 -0.17739403 4282001162
0.10557219 -0.19067258 -0.17739403 4282198541
0.10592572 -0.18808284 -0.17528869 4282395143
0.10592572 -0.18642402 -0.17528869 4282328580
0.10592572 -0.18476516 -0.17528869 4282264320
0.10592572 -0.1831063 -0.17528869 4282460416
0.10592572 -0.18144745 -0.17528869 4282394368
0.10592572 -0.17978859 -0.17528869 4283115264
0.10592572 -0.17812976 -0.17528869 4283050756
0.10592572 -0.17647091 -0.17528869 4282919168
0.10574895 -0.17525408 -0.1763414 4282853376
0.10574895 -0.17359263 -0.1763414 4282852360
0.12554634 -0.11204483 -0.058444902 4286455552
0.12554634 -0.11067459 -0.058444902 4286785280
0.12554634 -0.10930435 -0.058444902 4286851072
0.12536956 -0.10834232 -0.059497528 4286850560
0.12519279 -0.10737512 -0.060550224 4287046400
0.12519279 -0.10599968 -0.060550224 4286522880
0.12501603 -0.10502467 -0.061602861 4286654464
0.12501603 -0.10364661 -0.061602861 4286588416
0.12483928 -0.10266379 -0.062655501 4286851587
0.12483928 -0.10128315 -0.062655501 4286851846
0.12466252 -0.10029252 -0.063708127 4287047937
0.12448575 -0.099296719 -0.064760819 4286916352
0.12430899 -0.098295689 -0.065813459 4287375360
0.12430899 -0.096907243 -0.065813459 4287178753
0.12413222 -0.095898435 -0.066866085 4286851072
0.12413222 -0.094507381 -0.066866085 4286982657
0.12413222 -0.093116328 -0.066866085 4287180034
0.12413222 -0.09172529 -0.066866085 4287179520
0.12413222 -0.090334252 -0.066866085 4287244544
0.12413222 -0.088943213 -0.066866085 4287178752
0.12413222 -0.087552175 -0.066866085 4287375360
0.12430899 -0.085799694 -0.065813459 4287375360
0.12430899 -0.084411263 -0.065813459 4287440901
0.12448575 -0.082666606 -0.064760819 4287311368
0.12466252 -0.080927119 -0.063708127 4287442954
0.12466252 -0.079543874 -0.063708127 4287179784
0.12483928 -0.07781221 -0.062655501 4287113739
0.12483928 -0.076431572 -0.062655501 4286590214
0.12483928 -0.075050935 -0.062655501 4285933572
0.12483928 -0.073670283 -0.062655501 4285801986
0.10539544 -0.1011388 -0.17844667 4281212928
0.10521868 -0.099794567 -0.1794993 4281476099
0.10539544 -0.0978055 -0.17844667 4281476352
0.10521868 -0.096456051 -0.1794993 4281147650
0.10521868 -0.094786808 -0.1794993 4281147650
0.10521868 -0.093117565 -0.1794993 4281212677
0.10504192 -0.09175773 -0.18055193 4281278470
0.10486515 -0.090392694 -0.18160462 4281212675
0.10504192 -0.088414013 -0.18055193 4281343746
0.10504192 -0.086742163 -0.18055193 4281146884
0.10504192 -0.085070327 -0.18055193 4281212677
0.10504192 -0.083398476 -0.18055193 4281146371
0.10504192 -0.081726611 -0.18055193 4281146884
0.10521868 -0.079763547 -0.1794993 4281081607
0.10539544 -0.077805683 -0.17844667 4281082374
0.10539544 -0.076139033 -0.17844667 4281345546
0.10557219 -0.074188948 -0.17739403 4281409541
0.13668235 -0.0050039855 0.0078718448 4281147400
0.13668235 -0.0037975502 0.0078718448 4281349165
0.13650557 -0.0028277379 0.0068191825 4279842370
0.13650557 -0.001618695 0.0068191825 4279450188
0.13632883 -0.00064107444 0.0057665459 4279450188
0.13632883 0.00057056133 0.0057665459 4279385680
0.13615206 0.0015559825 0.0047139172 4279253327
0.1359753 0.0025466043 0.0036612472 4279514184
0.13562177 0.0033213976 0.0015559488 4279645770
0.13562177 0.0045434418 0.0015559488 4279514696
0.13562177 0.0057654786 0.0015559488 4279448643
0.13544501 0.0067743021 0.00050331978 4279514436
0.13544501 0.0079989396 0.00050331978 4279513151
0.13544501 0.0092235766 0.00050331978 4279710530
0.13544501 0.010448214 0.00050331978 4280037435
0.13562177 0.011875663 0.0015559488 4280036665
0.13562177 0.013097707 0.0015559488 4280102980
0.13562177 0.014319744 0.0015559488 4278860116
0.13562177 0.015541781 0.0015559488 4279649632
0.13562177 0.016763818 0.0015559488 4278342248
0.13562177 0.017985862 0.0015559488 4278472801
0.13562177 0.019207891 0.0015559488 4278859852
0.13544501 0.020245325 0.00050331978 4278662473
0.13544501 0.021469954 0.00050331978 4279448389
0.13509148 0.022335764 -0.0016019788 4279841603
0.13491471 0.023388777 -0.0026546409 4279778374
0.13456121 0.024272781 -0.0047599138 4279580995
0.13420767 0.025167193 -0.0068652048 4279186753
0.13385415 0.026071992 -0.0089705037 4279450190
0.13332386 0.02682079 -0.012128439 4279580229
0.13297035 0.027748991 -0.014233737 4279777608
0.13244005 0.028526377 -0.017391698 4284569942
0.13226329 0.029636603 -0.018444335 4292392800
0.13190977 0.030596014 -0.020549633 4294499682
0.13155623 0.031565819 -0.022654925 4290354723
0.10627925 0.014588263 -0.17318343 4283119104
0.10610249 0.01609889 -0.17423607 4281803264
0.10592572 0.017614726 -0.17528869 4281212928
0.10574895 0.019135762 -0.1763414 4280950784
0.10557219 0.020661991 -0.17739403 4281081859
0.10539544 0.022193436 -0.17844667 4280752896
0.10521868 0.023730073 -0.1794993 4280752896
0.10521868 0.025399331 -0.1794993 4280425216
0.10504192 0.026943762 -0.18055193 4280556032
0.10521868 0.028737824 -0.1794993 4280358915
0.10521868 0.030407082 -0.1794993 4280424708
0.10521868 0.032076333 -0.1794993 4280687364
0.10557219 0.033974413 -0.17739403 4280883200
0.10592572 0.035862099 -0.17528869 4280556032
0.10627925 0.037739377 -0.17318343 4280490240
0.10645601 0.039499644 -0.17213081 4280490240
0.10663277 0.04125471 -0.1710781 4280556032
0.10680954 0.043004576 -0.17002547 4280489984
0.10698629 0.044749241 -0.16897283 4280555778
0.10698629 0.046392489 -0.16897283 4280817665
0.10716306 0.048129354 -0.1679202 4280751872
0.10716306 0.049770005 -0.1679202 4280817154
0.10716306 0.051410656 -0.1679202 4280359169
0.12448575 0.072547831 -0.064760819 4288307458
0.12448575 0.073933676 -0.064760819 4288964611
0.12448575 0.075319521 -0.064760819 4289359872
0.12448575 0.076705359 -0.064760819 4289818624
0.12448575 0.078091204 -0.064760819 4290014976
0.12448575 0.079477049 -0.064760819 4290278145
0.12448575 0.080862887 -0.064760819 4289884160
0.12430899 0.08220192 -0.065813459 4289949952
0.12448575 0.083634578 -0.064760819 4290147329
0.12430899 0.084978804 -0.065813459 4290081536
0.12430899 0.086367249 -0.065813459 4289949952
0.12413222 0.087719284 -0.066866085 4290212352
0.12413222 0.089110322 -0.066866085 4290080768
0.12413222 0.090501368 -0.066866085 4290081792
0.12413222 0.091892414 -0.066866085 4290081792
0.12413222 0.093283452 -0.066866085 4289885184
0.12413222 0.094674498 -0.066866085 4290081536
0.12413222 0.096065544 -0.066866085 4289949952
0.12413222 0.097456582 -0.066866085 4289949952
0.12413222 0.098847628 -0.066866085 4289884416
0.12413222 0.10023867 -0.066866085 4290016000
0.12413222 0.10162971 -0.066866085 4290016000
0.12430899 0.10302857 -0.065813459 4290147329
0.12430899 0.10441701 -0.065813459 4290081536
0.12430899 0.10580546 -0.065813459 4290278145
0.12430899 0.1071939 -0.065813459 4289885184
0.12430899 0.10858234 -0.065813459 4289885184
0.12430899 0.10997079 -0.065813459 4290147329
0.12430899 0.11135923 -0.065813459 4290081536
0.12413222 0.11275806 -0.066866085 4290081792
0.12413222 0.1141491 -0.066866085 4290147328
0.12413222 0.11554015 -0.066866085 4290213120
0.12430899 0.116913 -0.065813459 4290147328
0.12413222 0.11832223 -0.066866085 4290016000
0.12413222 0.11971328 -0.066866085 4290081536
0.12413222 0.12110432 -0.066866085 4289950725
0.12395547 0.12252395 -0.067918725 4289029376
0.12395547 0.12391759 -0.067918725 4289095168
0.10380458 0.13085331 -0.1879205 4289095168
0.10380458 0.13254336 -0.1879205 4287978752
0.10380458 0.13423342 -0.1879205 4286010629
0.10380458 0.13592346 -0.1879205 4285158416
0.10398133 0.13756673 -0.18686785 4284764941
0.10398133 0.13925418 -0.18686785 4284764941
0.1041581 0.14088964 -0.18581516 4285159435
0.1041581 0.14257449 -0.18581516 4285157898
0.10433488 0.14420216 -0.18476252 4285289234
0.10451163 0.14582461 -0.18370989 4284962320
0.10451163 0.14750427 -0.18370989 4285028113
0.10468838 0.14911893 -0.18265726 4285160203
0.10468838 0.15079598 -0.18265726 4285683978
0.10486515 0.15240285 -0.18160462 4285486086
0.10486515 0.15407729 -0.18160462 4285618189
0.10486515 0.15575175 -0.18160462 4285486603
0.10486515 0.15742621 -0.18160462 4285682697
0.10486515 0.15910065 -0.18160462 4285682445
0.10486515 0.16077511 -0.18160462 4285420556
0.10486515 0.16244955 -0.18160462 4285420556
0.10486515 0.16412401 -0.18160462 4285159183
0.10486515 0.16579847 -0.18160462 4285355029
0.10486515 0.16747291 -0.18160462 4285617937
0.10486515 0.16914737 -0.18160462 4285683467
0.10486515 0.17082182 -0.18160462 4285486088
0.10486515 0.17249627 -0.18160462 4285551883
0.10451163 0.17437871 -0.18370989 4285355795
0.10451163 0.17605835 -0.18370989 4285683730
0.10451163 0.17773801 -0.18370989 4285749773
0.10433488 0.17952946 -0.18476252 4285683980
0.1041581 0.18132609 -0.18581516 4285552906
0.1041581 0.18301095 -0.18581516 4285815303
0.1041581 0.1846958 -0.18581516 4285618951
0.10398133 0.18650286 -0.18686785 4285684744
0.10398133 0.1881903 -0.18686785 4285815818
0.10398133 0.18987776 -0.18686785 4285881361
0.1041581 0.1914352 -0.18581516 4285685012
0.1041581 0.19312006 -0.18581516 4285552910
0.1041581 0.19480491 -0.18581516 4285552910
0.1041581 0.19648977 -0.18581516 4285684496
0.10433488 0.19803423 -0.18476252 4285684998
0.10433488 0.19971648 -0.18476252 4285619971
0.10433488 0.20139873 -0.18476252 4286011660
0.10433488 0.20308098 -0.18476252 4286077453
0.10433488 0.20476323 -0.18476252 4286209809
0.1041581 0.20659888 -0.18581516 4286340877
0.1041581 0.20828374 -0.18581516 4286209809
0.1041581 0.20996858 -0.18581516 4286012430
0.1041581 0.21165344 -0.18581516 4285553676
0.1041581 0.21333829 -0.18581516 4285423107
0.10433488 0.21485676 -0.18476252 4285684994
0.10433488 0.216539 -0.18476252 4285880848
0.10451163 0.21804966 -0.18370989 4285946641
0.10451163 0.21972932 -0.18370989 4285881107
0.10468838 0.22123218 -0.18265726 4286144018
0.10468838 0.22290923 -0.18265726 4285947664
0.10468838 0.22458628 -0.18265726 4285817350
0.10468838 0.22626333 -0.18265726 4286079754
0.10468838 0.22794038 -0.18265726 4286144520
0.10468838 0.22961743 -0.18265726 4286209030
0.10468838 0.23129448 -0.18265726 4286275336
0.10486515 0.23277655 -0.18160462 4286275336
0.10468838 0.23464859 -0.18265726 4285946891
0.10486515 0.23612545 -0.18160462 4286144529
0.10468838 0.23800269 -0.18265726 4286013711
0.10468838 0.23967974 -0.18265726 4285947664
0.10468838 0.2413568 -0.18265726 4286145043
0.10468838 0.24303384 -0.18265726 4285686799
0.10468838 0.24471091 -0.18265726 4285817102
0.10468838 0.24638794 -0.18265726 4286079252
0.10468838 0.24806501 -0.18265726 4286275604
0.10468838 0.24974206 -0.18265726 4286209811
0.10468838 0.25141913 -0.18265726 4286208780
0.10468838 0.25309616 -0.18265726 4286012434
0.10468838 0.25477323 -0.18265726 4286144793
0.10451163 0.25668168 -0.18370989 4286210586
0.10451163 0.25836131 -0.18370989 4286407703
0.10451163 0.26004097 -0.18370989 4286408205
0.10451163 0.26172063 -0.18370989 4286408207
0.10451163 0.26340029 -0.18370989 4286080274
0.10451163 0.26507992 -0.18370989 4286014481
0.10433488 0.26868883 -0.18476252 4286079756
0.10433488 0.27037108 -0.18476252 4286341649
0.10433488 0.27205333 -0.18476252 4286538760
0.10433488 0.27373558 -0.18476252 4286538760
0.10451163 0.27515784 -0.18370989 4286342410
0.10451163 0.2768375 -0.18370989 4286604301
0.10433488 0.27878234 -0.18476252 4286538247
0.10433488 0.28046459 -0.18476252 4286669833
0.10666431 -0.26838902 -0.18033393 4283118594
0.10666431 -0.26671973 -0.18033393 4283511307
0.10666431 -0.2650505 -0.18033393 4282657030
0.10666431 -0.26338124 -0.18033393 4282657545
0.10666431 -0.26171198 -0.18033393 4282396426
0.10666431 -0.26004276 -0.18033393 4282396426
0.1064898 -0.25894293 -0.18138786 4282526979
0.1064898 -0.25727108 -0.18138786 4282853641
0.10631527 -0.25616348 -0.18244186 4283049739
0.10631527 -0.254489 -0.18244186 4283181325
0.10631527 -0.25281453 -0.18244186 4282461445
0.10614076 -0.25169653 -0.18349579 4282985225
0.10614076 -0.25001946 -0.18349579 4282526729
0.10614076 -0.24834242 -0.18349579 4282329609
0.10614076 -0.24666539 -0.18349579 4282395402
0.10614076 -0.24498832 -0.18349579 4282789381
0.10614076 -0.24331129 -0.18349579 4282395393
0.10614076 -0.24163422 -0.18349579 4282133764
0.10614076 -0.23995715 -0.18349579 4282133764
0.10631527 -0.23774448 -0.18244186 4282395652
0.10631527 -0.23607004 -0.18244186 4282525957
0.10614076 -0.23492602 -0.18349579 4281869828
0.10631527 -0.23272112 -0.18244186 4282329609
0.10631527 -0.23104668 -0.18244186 4282526988
0.10631527 -0.22937223 -0.18244186 4282525957
0.10631527 -0.22769779 -0.18244186 4282328576
0.10631527 -0.22602335 -0.18244186 4282133252
0.10631527 -0.22434884 -0.18244186 4281935623
0.10631527 -0.2226744 -0.18244186 4282133002
0.10631527 -0.22099996 -0.18244186 4282395402
0.10631527 -0.21932551 -0.18244186 4282001666
0.1064898 -0.21714661 -0.18138786 4282002180
0.1064898 -0.21547475 -0.18138786 4282067973
0.1064898 -0.2138029 -0.18138786 4282264586
0.10666431 -0.21163443 -0.18033393 4282329098
0.10666431 -0.2099652 -0.18033393 4282395141
0.10666431 -0.20829594 -0.18033393 4282066185
0.10666431 -0.20662668 -0.18033393 4282131978
0.10683881 -0.2044712 -0.17928 4282329357
0.10683881 -0.20280457 -0.17928 4282460166
0.10683881 -0.2011379 -0.17928 4282196740
0.10683881 -0.19947127 -0.17928 4282459912
0.10683881 -0.1978046 -0.17928 4282066437
0.10683881 -0.19613793 -0.17928 4281870594
0.10701332 -0.19400069 -0.17822607 4281870594
0.10701332 -0.19233665 -0.17822607 4281870090
0.10718784 -0.19020715 -0.17717214 4282001676
0.10736234 -0.18808284 -0.17611814 4282133000
0.10736234 -0.18642402 -0.17611814 4282065926
0.10736234 -0.18476516 -0.17611814 4282000896
0.10736234 -0.1831063 -0.17611814 4282066688
0.10736234 -0.18144745 -0.17611814 4281935104
0.10736234 -0.17978859 -0.17611814 4282262785
0.10736234 -0.17812976 -0.17611814 4282000898
0.10736234 -0.17647091 -0.17611814 4282262787
0.10718784 -0.17525408 -0.17717214 4282065408
0.12673301 -0.11341506 -0.059130028 4287046913
0.12673301 -0.11204483 -0.059130028 4286520320
0.12673301 -0.11067459 -0.059130028 4286785280
0.12673301 -0.10930435 -0.059130028 4286785280
0.12673301 -0.1079341 -0.059130028 4286850560
0.1265585 -0.10696948 -0.060183957 4287111424
0.12638399 -0.10599968 -0.061237957 4286719488
0.12638399 -0.10462424 -0.061237957 4286719488
0.12620947 -0.10364661 -0.06229189 4286785024
0.12620947 -0.10226856 -0.06229189 4286786051
0.12603496 -0.10128315 -0.063345827 4286786823
0.12586045 -0.10029252 -0.064399756 4287113476
0.12586045 -0.098909289 -0.064399756 4286784512
0.12568593 -0.097910866 -0.065453745 4287309569
0.12551142 -0.096907243 -0.066507682 4287244294
0.12551142 -0.095518813 -0.066507682 4286916097
0.12551142 -0.094130367 -0.066507682 4286850304
0.12533693 -0.093116328 -0.067561619 4287113728
0.12533693 -0.09172529 -0.067561619 4287244544
0.12533693 -0.090334252 -0.067561619 4287310339
0.12533693 -0.088943213 -0.067561619 4287309315
0.12551142 -0.087188154 -0.066507682 4287375108
0.12568593 -0.085438281 -0.065453745 4287309315
0.12568593 -0.084052444 -0.065453745 4287375110
0.12568593 -0.082666606 -0.065453745 4287244294
0.12586045 -0.080927119 -0.064399756 4287375880
0.12603496 -0.079192847 -0.063345827 4287375880
0.12603496 -0.07781221 -0.063345827 4287245577
0.12603496 -0.076431572 -0.063345827 4286786051
0.12620947 -0.074707717 -0.06229189 4286325250
0.12620947 -0.073329657 -0.06229189 4286193664
0.12603496 -0.072289646 -0.063345827 4285145600
0.12620947 -0.070573583 -0.06229189 4283049473
0.10666431 -0.10146381 -0.18033393 4281212673
0.10666431 -0.099794567 -0.18033393 4281344259
0.10666431 -0.098125324 -0.18033393 4281476097
0.10666431 -0.096456051 -0.18033393 4281082112
0.10666431 -0.094786808 -0.18033393 4281081859
0.1064898 -0.09342958 -0.18138786 4280950788
0.10631527 -0.092067167 -0.18244186 4280950788
0.10631527 -0.090392694 -0.18244186 4280950275
0.10631527 -0.08871825 -0.18244186 4281212673
0.10631527 -0.087043807 -0.18244186 4280884995
0.10631527 -0.085369349 -0.18244186 4280950788
0.10631527 -0.083694905 -0.18244186 4281015298
0.10631527 -0.082020447 -0.18244186 4280622853
0.10631527 -0.080345988 -0.18244186 4280753927
0.10631527 -0.078671545 -0.18244186 4281082120
0.1064898 -0.076711059 -0.18138786 4281082120
0.1064898 -0.075039193 -0.18138786 4281081859
0.13790166 -0.0047621694 0.0083225556 4281081861
0.13790166 -0.0035583344 0.0083225556 4281349419
0.13772716 -0.002591115 0.007268623 4279908161
0.13772716 -0.0013846722 0.007268623 4279253579
0.13755265 -0.00040965943 0.0062146573 4279319372
0.13755265 0.00079938356 0.0062146573 4279123540
0.13737814 0.001782197 0.0051607243 4279317321
0.13720363 0.002770226 0.0041067917 4279644485
0.13702911 0.0037634405 0.0030528253 4279711302
0.1368546 0.004761863 0.0019988928 4279645509
0.1366801 0.0057654786 0.00094492658 4279317571
0.1366801 0.0069875154 0.00094492658 4279252546
0.1366801 0.0082095526 0.00094492658 4279841083
0.1366801 0.0094315968 0.00094492658 4279841083
0.1366801 0.010653634 0.00094492658 4279971124
0.1366801 0.011875663 0.00094492658 4279905081
0.1366801 0.013097707 0.00094492658 4279905599
0.1366801 0.014319744 0.00094492658 4279252557
0.1366801 0.015541781 0.00094492658 4279581522
0.1366801 0.016763818 0.00094492658 4278471781
0.1366801 0.017985862 0.00094492658 4278601568
0.1366801 0.019207891 0.00094492658 4279056463
0.13650559 0.020245325 -0.00010900621 4278925645
0.13650559 0.021469954 -0.00010900621 4279448389
0.13615657 0.022335764 -0.0022169051 4279710271
0.13598205 0.023388777 -0.003270871 4279515972
0.13580754 0.024446998 -0.0043248041 4279187266
0.13545853 0.02533881 -0.0064327028 4279121473
0.13493499 0.026071992 -0.0095945345 4279254864
0.13458596 0.026987199 -0.011702426 4279188297
0.13406244 0.027748991 -0.014864258 4279254090
0.1335389 0.028526377 -0.018026123 4281414461
0.13336439 0.029636603 -0.019080056 4288970058
0.13301538 0.030596014 -0.021187954 4294961784
0.13266635 0.031565819 -0.023295853 4293840990
0.13231733 0.032546025 -0.025403751 4282461696
0.10736234 0.017614726 -0.17611814 4281278976
0.10701332 0.018997949 -0.17822607 4280819968
0.10683881 0.020526778 -0.17928 4280950786
0.10666431 0.022060823 -0.18033393 4280687616
0.10666431 0.023730073 -0.18033393 4280556032
0.10666431 0.025399331 -0.18033393 4280294144
0.1064898 0.026943762 -0.18138786 4280490240
0.1064898 0.028615613 -0.18138786 4280489985
0.1064898 0.030287463 -0.18138786 4280489985
0.10666431 0.032076333 -0.18033393 4280424708
0.10701332 0.033974413 -0.17822607 4280686080
0.10736234 0.035862099 -0.17611814 4280359168
0.10753686 0.037630159 -0.17506421 4280489984
0.10771137 0.039393026 -0.17401026 4280489984
0.10806039 0.04125471 -0.17190233 4280359168
0.10806039 0.042903166 -0.17190233 4280162817
0.1084094 0.044749241 -0.16979447 4280424708
0.1084094 0.046392489 -0.16979447 4280751874
0.10875843 0.048222966 -0.16768661 4280686081
0.10858391 0.049770005 -0.16874054 4280817154
0.10858391 0.051410656 -0.16874054 4280293376
0.12586045 0.069846362 -0.064399756 4288639521
0.12586045 0.071229607 -0.064399756 4288241664
0.12568593 0.072547831 -0.065453745 4288636418
0.12568593 0.073933676 -0.065453745 4289294080
0.12568593 0.075319521 -0.065453745 4289622016
0.12568593 0.076705359 -0.065453745 4289884416
0.12568593 0.078091204 -0.065453745 4290014976
0.12568593 0.079477049 -0.065453745 4290014976
0.12568593 0.080862887 -0.065453745 4289949952
0.12551142 0.08220192 -0.066507682 4289884416
0.12551142 0.083590366 -0.066507682 4290016000
0.12568593 0.085020415 -0.065453745 4289884416
0.12551142 0.086367249 -0.066507682 4289818624
0.12551142 0.087755695 -0.066507682 4290409731
0.12533693 0.089110322 -0.067561619 4290278145
0.12533693 0.090501368 -0.067561619 4290081792
0.12533693 0.091892414 -0.067561619 4290081792
0.12533693 0.093283452 -0.067561619 4289885184
0.12533693 0.094674498 -0.067561619 4290081536
0.12533693 0.096065544 -0.067561619 4289949952
0.12533693 0.097456582 -0.067561619 4290213122
0.12533693 0.098847628 -0.067561619 4290016000
0.12533693 0.10023867 -0.067561619 4290081793
0.12551142 0.10164013 -0.066507682 4290016000
0.12551142 0.10302857 -0.066507682 4290213120
0.12551142 0.10441701 -0.066507682 4290147328
0.12551142 0.10580546 -0.066507682 4290147329
0.12551142 0.1071939 -0.066507682 4289754368
0.12568593 0.10857975 -0.065453745 4289687808
0.12551142 0.10997079 -0.066507682 4290081536
0.12551142 0.11135923 -0.066507682 4290081536
0.12551142 0.11274767 -0.066507682 4290213120
0.12551142 0.11413611 -0.066507682 4290147328
0.12551142 0.11552456 -0.066507682 4290213120
0.12551142 0.116913 -0.066507682 4290213122
