# .PCD v0.7 - Point Cloud Data file format
VERSION 0.7
FIELDS x y z rgb
SIZE 4 4 4 4
TYPE F F F U
COUNT 1 1 1 1
WIDTH 1046
HEIGHT 1
VIEWPOINT 0 0 0 1 0 0 0
POINTS 1046
DATA ascii
0.17338353 0.0047972361 -0.11323237 4279568647
0.17361814 0.0062056631 -0.11324678 4279240196
0.17385517 0.0076105711 -0.11325821 4279044102
0.17341979 0.0082323533 -0.1137897 4278978309
0.17366053 0.009632024 -0.11379663 4278978309
0.17322637 0.010252057 -0.11432663 4279109125
0.17279223 0.010872089 -0.11485663 4279174918
0.17235807 0.011492119 -0.11538663 4279240709
0.17192392 0.012112151 -0.11591663 4279372549
0.17148978 0.012732184 -0.11644663 4279306756
0.17173907 0.014119569 -0.11644309 4278781184
0.17130615 0.014737852 -0.1169716 4278715904
0.17087322 0.015356129 -0.1175001 4278715648
0.1704403 0.01597441 -0.1180286 4278649856
0.17000738 0.016592693 -0.1185571 4278649857
0.17026404 0.017969569 -0.11854459 4278649857
0.16983233 0.018586099 -0.11907159 4278519041
0.16940063 0.019202624 -0.11959859 4278584834
0.16896893 0.019819155 -0.1201256 4278781443
0.16853724 0.020435683 -0.12065261 4278781443
0.16810554 0.021052213 -0.12117961 4278715650
0.16767384 0.021668741 -0.12170662 4278715650
0.16724214 0.022285268 -0.12223362 4278781443
0.16681045 0.0229018 -0.12276063 4278584838
0.16637875 0.023518326 -0.12328763 4278521870
0.16594705 0.024134854 -0.12381464 4278982421
0.16551535 0.024751384 -0.12434165 4278721048
0.16508366 0.025367912 -0.12486865 4278655253
0.16394643 0.025248613 -0.12595615 4278655253
0.16351351 0.025866894 -0.12648465 4278720274
0.16308057 0.026485177 -0.12701316 4278391309
0.16264766 0.027103454 -0.12754166 4278586631
0.16221473 0.027721735 -0.12807016 4278717445
0.1617818 0.028340017 -0.12859866 4278914824
0.16134888 0.028958295 -0.12912717 4279047180
0.16091596 0.029576574 -0.12965567 4279047180
0.1597677 0.029473038 -0.13075665 4278981641
0.15933356 0.030093066 -0.13128664 4278981641
0.1588994 0.030713104 -0.13181664 4278652422
0.15846524 0.031333137 -0.13234664 4278586629
0.15731083 0.031238334 -0.13345511 4278586629
0.15687545 0.031860117 -0.13398661 4278652422
0.15571739 0.031770587 -0.13509957 4278783238
0.15528078 0.032394119 -0.13563256 4278849031
0.15411901 0.032309826 -0.13675001 4278783238
0.15368117 0.032935113 -0.1372845 4278717445
0.15251574 0.032856099 -0.13840644 4278849031
0.15134785 0.032780562 -0.13953139 4278914824
0.15090756 0.03340935 -0.14006887 4278914824
0.149736 0.033339091 -0.14119829 4278849031
0.14929448 0.033969633 -0.14173728 4278717445
0.14811923 0.033904608 -0.1428712 4278520836
0.14767648 0.034536898 -0.14341168 4278520836
0.14723375 0.035169195 -0.14395216 4278718215
0.1460536 0.035111193 -0.14509206 4278784008
0.14560963 0.035745241 -0.14563404 4278652422
0.14516568 0.036379285 -0.14617601 4278586629
0.14398062 0.036328282 -0.14732191 4278520836
0.14353544 0.036964078 -0.14786538 4278520836
0.14309025 0.037599873 -0.14840886 4278718217
0.14264506 0.038235672 -0.14895234 4278718215
0.14145385 0.038193416 -0.15010571 4278586629
0.14100744 0.038830962 -0.15065069 4278652422
0.14056103 0.039468508 -0.15119566 4278718215
0.16996112 0.074192472 -0.12853992 4278717699
0.16956867 0.074752949 -0.12901902 4278849285
0.16917622 0.075313427 -0.12949811 4278849285
0.16878377 0.075873911 -0.12997721 4278717699
0.16915573 0.077086166 -0.12982394 4278585859
0.1687645 0.077644892 -0.13030154 4278454273
0.16837329 0.078203626 -0.13077913 4278585859
0.16875012 0.079408854 -0.13061988 4278651652
0.16836013 0.07996583 -0.13109599 4278651906
0.16874067 0.081165835 -0.13093223 4278586113
0.1683519 0.08172106 -0.13140683 4278651652
0.1687361 0.082915783 -0.13123859 4278717445
0.16912276 0.084107012 -0.13106738 4278520836
0.16873644 0.084658727 -0.13153899 4278521349
0.16912679 0.085844718 -0.13136324 4278587142
0.16951959 0.087027185 -0.13118455 4278916361
0.16991486 0.088206157 -0.13100281 4278850568
0.16953221 0.088752627 -0.13146994 4278653189
0.16993113 0.089926332 -0.13128375 4278586883
0.16954972 0.090471052 -0.13174936 4278717445
0.16995233 0.091639526 -0.13155866 4278718215
0.16957214 0.092182495 -0.13202278 4278916361
0.16997842 0.093345687 -0.13182759 4279903256
0.16959946 0.093886904 -0.13229023 4280299547
0.17000942 0.095044844 -0.13209057 4280233754
0.16963169 0.095584311 -0.13255168 4280167961
0.17004535 0.09673702 -0.13234751 4280035092
0.17046143 0.097886205 -0.13214035 4279703047
0.17008616 0.098422162 -0.13259847 4279374082
0.17050596 0.099566109 -0.13238682 4279438340
0.17013189 0.10010032 -0.13284345 4279372547
0.17055534 0.101239 -0.13262732 4279438340
0.17098126 0.1023742 -0.13240816 4279439110
0.17060965 0.1029049 -0.13286181 4280167973
0.17103924 0.10403481 -0.13263817 4280496938
0.17066886 0.10456377 -0.13309033 4279378974
0.17110212 0.10568843 -0.13286221 4279703315
0.17073298 0.10621563 -0.13331287 4279900692
0.17036383 0.10674284 -0.13376352 4280300329
0.17080201 0.10786052 -0.13352938 4280101927
0.17043409 0.10838597 -0.13397853 4279312411
0.17087594 0.10949837 -0.13373993 4279767825
0.17050923 0.11002208 -0.13418759 4279635721
0.17014253 0.11054577 -0.13463525 4279700999
0.16977584 0.11106947 -0.1350829 4279569926
0.16940914 0.11159316 -0.13553056 4279372547
0.16985837 0.11269508 -0.13528296 4279439110
0.1694929 0.11321703 -0.13572912 4279307524
0.16912742 0.11373898 -0.13617527 4279045635
0.16876195 0.11426092 -0.13662145 4278914051
0.16839647 0.11478287 -0.1370676 4278914051
0.16803101 0.11530481 -0.13751376 4278782722
0.16766554 0.11582676 -0.13795991 4278848261
0.16647555 0.11578276 -0.1391118 4278914056
0.16610886 0.11630645 -0.13955946 4278782470
0.16574216 0.11683016 -0.14000712 4278782470
0.16537546 0.11735386 -0.14045477 4278782470
0.16500877 0.11787756 -0.14090243 4278782470
0.16381145 0.11784408 -0.14206329 4278651654
0.16344352 0.11836953 -0.14251244 4278520838
0.1630756 0.11889498 -0.14296159 4278520838
0.16187336 0.11886849 -0.14412846 4278652937
0.16150421 0.11939568 -0.14457911 4278587661
0.16113505 0.11992289 -0.14502977 4278653967
0.1607659 0.12045009 -0.14548041 4278456588
0.15955755 0.12043238 -0.14665474 4278390795
0.15918717 0.12096133 -0.14710689 4278390795
0.15797514 0.12094887 -0.14828572 4278390795
0.15676063 0.12093989 -0.14946756 4278456075
0.15638779 0.12147234 -0.1499227 4278521868
0.15516962 0.12146865 -0.15110901 4278522381
0.15394899 0.12146842 -0.15229833 4278522381
0.15272591 0.12147173 -0.15349063 4278522897
0.1523494 0.12200944 -0.15395026 4278522897
0.15112263 0.12201797 -0.15514708 4278522897
0.14989342 0.12203004 -0.15634686 4278522897
0.14951447 0.12257125 -0.15680948 4278522897
0.14828159 0.12258856 -0.15801375 4278522897
0.14704622 0.12260936 -0.15922105 4278522897
0.14666481 0.12315407 -0.15968667 4278522897
0.1454258 0.12318015 -0.16089843 4278522897
0.14504315 0.12372662 -0.16136555 4278522897
0.14466052 0.12427308 -0.16183268 4278522897
0.14427787 0.12481956 -0.1622998 4278522897
0.19452651 0.18904591 -0.12441986 4278522897
0.19179091 0.18946584 -0.12715782 4278522897
0.19056292 0.18947615 -0.12835611 4278522897
0.19027227 0.18989125 -0.12871094 4278522897
0.18904062 0.18990681 -0.12991372 4278522897
0.18284547 0.19003713 -0.13597259 4278522897
0.18254746 0.19046274 -0.1363364 4278522897
0.18129985 0.19050106 -0.13755864 4278522897
0.18100061 0.19092843 -0.13792396 4278522897
0.18070136 0.19135579 -0.13828926 4278522897
0.17944886 0.19140112 -0.1395175 4278522897
0.17914838 0.19183025 -0.13988432 4278522897
0.17884791 0.19225936 -0.14025111 4278522897
0.17759049 0.1923117 -0.14148533 4278522897
0.17728879 0.19274259 -0.14185365 4278522897
0.1769871 0.19317344 -0.14222194 4278522897
0.17668539 0.19360431 -0.14259025 4278522897
0.17542183 0.19366542 -0.14383198 4278522897
0.17511892 0.19409801 -0.14420177 4278522897
0.17481598 0.19453065 -0.14457157 4278522897
0.17451307 0.19496326 -0.14494137 4278522897
0.17324337 0.19503312 -0.14619058 4278522897
0.17293923 0.19546749 -0.14656189 4278522897
0.17263508 0.19590186 -0.14693318 4278522897
0.17136049 0.19597872 -0.14818837 4278522897
0.17105511 0.19641484 -0.14856118 4278522897
0.17074972 0.19685097 -0.14893398 4278522897
0.17044435 0.19728708 -0.14930676 4278522897
0.17013897 0.19772321 -0.14967957 4278522897
0.16885704 0.19781059 -0.15094373 4278522897
0.16855043 0.19824846 -0.15131801 4278522897
0.16824383 0.19868633 -0.15169232 4278522897
0.16793722 0.19912422 -0.1520666 4278522897
0.16763063 0.19956209 -0.15244089 4278522897
0.16732402 0.19999996 -0.15281519 4278522897
0.16701742 0.20043784 -0.1531895 4278522897
0.16671081 0.20087571 -0.15356378 4278522897
0.1664042 0.20131359 -0.15393807 4278522897
0.16510998 0.20141847 -0.15521723 4278522897
0.070134029 -0.29755646 -0.16363028 4278925899
0.071055964 -0.29364282 -0.16339764 4278925899
0.07254523 -0.28879592 -0.16277002 4278663241
0.17553015 -0.087184235 -0.0965712 4281930767
0.17502977 -0.08646962 -0.097182043 4281930767
0.17452939 -0.085755005 -0.097792894 4281930767
0.17461474 -0.084133416 -0.097986318 4281864974
0.17411558 -0.083420552 -0.098595664 4281405707
0.17361644 -0.082707688 -0.099205017 4281078540
0.17370667 -0.08109314 -0.099392474 4280685579
0.17320874 -0.080382027 -0.10000033 4280685579
0.17330265 -0.078772724 -0.10018329 4280619786
0.17280595 -0.078063361 -0.10078964 4280751372
0.17230926 -0.077354006 -0.10139599 4280685579
0.1724081 -0.075751685 -0.10157297 4280750859
0.17191263 -0.075044081 -0.10217782 4280750859
0.17141716 -0.074336469 -0.10278268 4280750859
0.17092168 -0.073628865 -0.10338754 4280750859
0.1704262 -0.072921261 -0.1039924 4280750859
0.16993074 -0.07221365 -0.10459726 4280750859
0.17003815 -0.070623614 -0.10476376 4280816652
0.16954391 -0.069917761 -0.10536712 4280816652
0.16904965 -0.069211908 -0.10597048 4281146648
0.16855541 -0.068506047 -0.10657384 4281611569
0.16806117 -0.067800194 -0.10717721 4281023029
0.16756693 -0.067094341 -0.10778057 4280760629
0.16707267 -0.066388488 -0.10838393 4280694836
0.16657843 -0.065682627 -0.10898729 4279900698
0.16608419 -0.064976774 -0.10959066 4281676852
0.16558994 -0.064270921 -0.11019401 4280827707
0.16509569 -0.06356506 -0.11079738 4280826937
0.16460145 -0.062859207 -0.11140074 4280300593
0.1641072 -0.062153354 -0.1120041 4280227606
0.16361296 -0.061447497 -0.11260746 4280489749
0.16311871 -0.060741641 -0.11321083 4280494888
0.16262446 -0.060035788 -0.11381419 4280563250
0.16150773 -0.060184333 -0.11487987 4280431664
0.16101225 -0.059476729 -0.11548472 4279768855
0.16051678 -0.058769122 -0.11608958 4281021234
0.16002131 -0.058061514 -0.11669444 4280367156
0.15952584 -0.057353906 -0.1172993 4279833878
0.15840171 -0.057491969 -0.11837398 4279899671
0.15790501 -0.056782611 -0.11898033 4281018152
0.15740831 -0.056073252 -0.11958668 4280430892
0.15691161 -0.055363897 -0.12019304 4280298794
0.15578139 -0.055493183 -0.1212752 4280428065
0.15591823 -0.05394518 -0.12140576 4280493858
0.15478554 -0.054070964 -0.12249091 4280889386
0.15428762 -0.053359855 -0.12309876 4279969567
0.15378968 -0.052648745 -0.12370662 4280226577
0.15329176 -0.051937636 -0.12431447 4280289542
0.17439009 -0.012331314 -0.11046266 4280222977
0.17394122 -0.011690265 -0.11101063 4280222977
0.17414677 -0.010240328 -0.11105733 4280222977
0.17369913 -0.0096010296 -0.1116038 4280222977
0.17325148 -0.0089617316 -0.11215027 4280157954
0.17346191 -0.0075188237 -0.11219101 4280157954
0.17301549 -0.0068812757 -0.11273598 4279764993
0.1732296 -0.0054435935 -0.1127722 4278912000
0.17278442 -0.0048077977 -0.11331568 4278846208
0.1730022 -0.0033753985 -0.11334743 4278453248
0.17322244 -0.0019464955 -0.11337618 4278519041
0.17344514 -0.00052107865 -0.11340193 4278848006
0.17367028 0.00090081769 -0.11342468 4279700749
0.17389789 0.0023192279 -0.11344445 4280094991
0.17345883 0.0029462655 -0.11398043 4280029198
0.17369011 0.0043594055 -0.11399571 4279568647
0.17392385 0.0057690577 -0.11400799 4279240196
0.17348725 0.0063925926 -0.11454098 4279044102
0.17372465 0.0077969735 -0.11454877 4278978309
0.17328927 0.0084187584 -0.11508026 4278978309
0.17353037 0.009817902 -0.11508356 4279109125
0.17309622 0.010437934 -0.11561356 4279174918
0.17266206 0.011057964 -0.11614355 4279240709
0.17222792 0.011677996 -0.11667356 4279372549
0.17179377 0.012298029 -0.11720356 4279306756
0.17135961 0.012918059 -0.11773356 4278781184
0.17160928 0.014304929 -0.11772638 4278715904
0.17117636 0.014923207 -0.11825488 4278715648
0.17074344 0.015541486 -0.11878338 4278649856
0.17031051 0.016159769 -0.11931188 4278649857
0.17056631 0.017537871 -0.11929722 4278649857
0.1701346 0.018154401 -0.11982423 4278519041
0.16970292 0.018770928 -0.12035123 4278584834
0.16927122 0.019387458 -0.12087824 4278781443
0.16883951 0.020003986 -0.12140524 4278781443
0.16840781 0.020620516 -0.12193225 4278715650
0.16797613 0.021237044 -0.12245926 4278715650
0.16754442 0.021853572 -0.12298626 4278781443
0.16711272 0.022470102 -0.12351327 4278584838
0.16668102 0.02308663 -0.12404028 4278521870
0.16624933 0.023703156 -0.12456729 4278982421
0.16581763 0.024319688 -0.12509429 4278721048
0.16538593 0.024936216 -0.12562129 4278655253
0.16495423 0.025552742 -0.1261483 4278655253
0.16381665 0.025433971 -0.12723944 4278720274
0.16338372 0.026052253 -0.12776794 4278391309
0.1629508 0.02667053 -0.12829643 4278586631
0.16251788 0.027288811 -0.12882493 4278717445
0.16208494 0.027907094 -0.12935345 4278914824
0.16165201 0.028525371 -0.12988195 4279047180
0.16121909 0.029143652 -0.13041045 4279047180
0.1600717 0.029038884 -0.13151357 4278981641
0.15963756 0.029658912 -0.13204357 4278981641
0.1592034 0.030278949 -0.13257357 4278652422
0.15876924 0.030898981 -0.13310356 4278586629
0.15833509 0.031519014 -0.13363357 4278586629
0.15718031 0.031424738 -0.13474567 4278652422
0.1560231 0.031333983 -0.13586077 4278783238
0.1555865 0.031957515 -0.13639376 4278849031
0.15442558 0.031871997 -0.13751335 4278783238
0.15398775 0.032497283 -0.13804784 4278717445
0.15282318 0.032417037 -0.13917193 4278849031
0.15238412 0.033044074 -0.13970791 4278914824
0.15121585 0.032969069 -0.14083649 4278914824
0.15077557 0.033597857 -0.14137396 4278849031
0.14960364 0.033528119 -0.14250703 4278717445
0.14842923 0.033461869 -0.1436431 4278520836
0.1479865 0.034094162 -0.14418358 4278520836
0.14754376 0.034726456 -0.14472406 4278718215
0.14636448 0.034667224 -0.1458661 4278784008
0.14592052 0.035301268 -0.14640808 4278652422
0.14473754 0.035247304 -0.14755459 4278586629
0.14429235 0.035883091 -0.14809807 4278520836
0.14384717 0.036518887 -0.14864154 4278520836
0.14340198 0.037154682 -0.14918502 4278718217
0.14221285 0.03710945 -0.15033907 4278718215
0.17023593 0.073800012 -0.12922415 4278717699
0.16984348 0.074360497 -0.12970324 4278849285
0.16945103 0.074920967 -0.13018234 4278849285
0.16905858 0.075481452 -0.13066144 4278717699
0.16942967 0.076694936 -0.13050602 4278585859
0.16903844 0.077253662 -0.13098362 4278454273
0.16864723 0.077812396 -0.13146122 4278585859
0.1690232 0.079018854 -0.13129984 4278651652
0.16863321 0.079575829 -0.13177593 4278651906
0.1682432 0.08013282 -0.13225204 4278586113
0.16862412 0.081332281 -0.13208465 4278651652
0.16900747 0.082528234 -0.13191427 4278717445
0.16861992 0.083081715 -0.13238738 4278520836
0.16900694 0.084272407 -0.13221252 4278521349
0.16939645 0.08545962 -0.13203464 4278587142
0.16978838 0.086643316 -0.1318538 4278916361
0.16940451 0.08719153 -0.13232242 4278850568
0.16980015 0.08836998 -0.13213706 4278653189
0.1694175 0.088916451 -0.13260418 4278586883
0.16981678 0.090089634 -0.13241434 4278717445
0.17021856 0.091259331 -0.13222151 4278718215
0.16983835 0.091802299 -0.13268563 4278916361
0.17024378 0.09296672 -0.13248831 4279903256
0.16986482 0.093507938 -0.13295093 4280299547
0.17027391 0.094667107 -0.13274913 4280233754
0.16989619 0.095206566 -0.13321026 4280167961
0.17030898 0.096360512 -0.13300394 4280035092
0.16993247 0.096898213 -0.13346356 4279703047
0.17034893 0.098046876 -0.13325277 4279374082
0.16997366 0.098582834 -0.13371092 4279438340
0.17039381 0.09972626 -0.1334956 4279372547
0.17081641 0.10086616 -0.13327733 4279438340
0.17124146 0.10200259 -0.13305603 4279439110
0.17086986 0.10253329 -0.13350968 4280167973
0.17129859 0.10366444 -0.13328391 4280496938
0.17092821 0.10419339 -0.13373607 4279378974
0.17136061 0.10531928 -0.13350582 4279703315
0.17099147 0.10584647 -0.13395646 4279900692
0.1706223 0.10637368 -0.13440712 4280300329
0.17105964 0.10749259 -0.13417085 4280101927
0.17069171 0.10801804 -0.13462 4279312411
0.17032379 0.10854349 -0.13506915 4279767825
0.170766 0.10965537 -0.13482693 4279635721
0.17039931 0.11017907 -0.13527457 4279700999
0.17003261 0.11070277 -0.13572223 4279569926
0.1696659 0.11122646 -0.1361699 4279372547
0.17011428 0.11232961 -0.13592015 4279439110
0.1697488 0.11285155 -0.13636631 4279307524
0.16938333 0.1133735 -0.13681246 4279045635
0.16901785 0.11389545 -0.13725862 4278914051
0.16865239 0.1144174 -0.13770477 4278914051
0.16828692 0.11493934 -0.13815093 4278782722
0.16792144 0.11546129 -0.1385971 4278848261
0.16755597 0.11598324 -0.13904326 4278914056
0.16636562 0.11593975 -0.14019878 4278782470
0.16599892 0.11646345 -0.14064644 4278782470
0.16563223 0.11698715 -0.1410941 4278782470
0.16526553 0.11751086 -0.14154176 4278782470
0.16406907 0.11747615 -0.14270476 4278651654
0.16370115 0.1180016 -0.14315391 4278520838
0.16333322 0.11852705 -0.14360306 4278520838
0.1629653 0.1190525 -0.14405221 4278652937
0.16176268 0.11902653 -0.14522271 4278587661
0.16139354 0.11955374 -0.14567336 4278653967
0.16102439 0.12008093 -0.14612402 4278456588
0.15981689 0.12006199 -0.14730048 4278390795
0.15944651 0.12059095 -0.14775263 4278390795
0.15823533 0.12057727 -0.14893359 4278390795
0.15786374 0.12110797 -0.14938723 4278456075
0.15664886 0.12109952 -0.1505727 4278521868
0.15543154 0.12109459 -0.15176116 4278522381
0.15421177 0.12109314 -0.15295263 4278522381
0.15383647 0.1216291 -0.15341076 4278522897
0.15261304 0.12163293 -0.15460669 4278522897
0.15138713 0.12164024 -0.15580563 4278522897
0.1510094 0.1221797 -0.15626678 4278522897
0.14977983 0.12219229 -0.15747018 4278522897
0.1485478 0.12220836 -0.15867659 4278522897
0.14816761 0.12275134 -0.15914074 4278522897
0.14693189 0.12277266 -0.16035165 4278522897
0.14655046 0.12331739 -0.16081728 4278522897
0.14616905 0.1238621 -0.1612829 4278522897
0.14492846 0.12389044 -0.1624998 4278522897
0.14454581 0.12443691 -0.16296692 4278522897
0.19321826 0.18917084 -0.12646498 4278522897
0.19199358 0.18917641 -0.12766244 4278522897
0.19170414 0.18958977 -0.12801576 4278522897
0.19047579 0.18960059 -0.1292177 4278522897
0.189245 0.18961491 -0.13042261 4278522897
0.18305415 0.18973911 -0.13649216 4278522897
0.18275614 0.19016472 -0.13685597 4278522897
0.18150938 0.19020182 -0.13808036 4278522897
0.18121013 0.19062918 -0.13844568 4278522897
0.1809109 0.19105655 -0.13881098 4278522897
0.17965925 0.19110066 -0.14004135 4278522897
0.17935877 0.19152978 -0.14040817 4278522897
0.17905831 0.19195889 -0.14077498 4278522897
0.17875783 0.19238801 -0.14114179 4278522897
0.17750004 0.19244087 -0.14237966 4278522897
0.17719835 0.19287173 -0.14274795 4278522897
0.17689665 0.1933026 -0.14311625 4278522897
0.17563395 0.19336247 -0.14436013 4278522897
0.17533103 0.19379508 -0.14472991 4278522897
0.1750281 0.19422771 -0.14509971 4278522897
0.17472517 0.19466034 -0.14546952 4278522897
0.17345636 0.19472896 -0.14672086 4278522897
0.17315219 0.19516334 -0.14709216 4278522897
0.17284805 0.19559771 -0.14746347 4278522897
0.1725439 0.19603208 -0.14783476 4278522897
0.17126894 0.19610946 -0.14909358 4278522897
0.17096356 0.19654559 -0.1494664 4278522897
0.17065819 0.1969817 -0.14983918 4278522897
0.1703528 0.19741784 -0.15021197 4278522897
0.17004743 0.19785395 -0.15058477 4278522897
0.16974206 0.19829008 -0.15095757 4278522897
0.16845852 0.19837973 -0.15222687 4278522897
0.16815192 0.19881761 -0.15260115 4278522897
0.16784531 0.19925548 -0.15297544 4278522897
0.1675387 0.19969335 -0.15334974 4278522897
0.1672321 0.20013124 -0.15372404 4278522897
0.1669255 0.20056911 -0.15409833 4278522897
0.1666189 0.20100698 -0.15447262 4278522897
0.16532552 0.20111063 -0.15575394 4278522897
0.16501769 0.20155026 -0.15612972 4278522897
0.071971826 -0.29843765 -0.16364089 4279057485
0.072332092 -0.29546532 -0.16378996 4278925899
0.072697282 -0.29249993 -0.16393298 4278925899
0.073067352 -0.28954157 -0.16407004 4278663241
0.074002683 -0.285647 -0.16381149 4278663500
0.17588052 -0.087684609 -0.097443581 4281930767
0.17538014 -0.086970001 -0.098054431 4281930767
0.17487976 -0.086255386 -0.098665275 4281864974
0.17496425 -0.084632568 -0.098856561 4281864974
0.17446509 -0.083919704 -0.099465914 4281405707
0.17396595 -0.083206847 -0.10007527 4281078540
0.17405532 -0.08159107 -0.10026059 4280685579
0.1735574 -0.080879956 -0.10086844 4280685579
0.17305948 -0.080168851 -0.1014763 4280619786
0.17315376 -0.078560069 -0.10165562 4280751372
0.17265706 -0.077850707 -0.10226198 4280685579
0.17216036 -0.077141345 -0.10286833 4280750859
0.17225955 -0.075539552 -0.10304165 4280750859
0.17176409 -0.07483194 -0.10364651 4280750859
0.17126861 -0.074124336 -0.10425137 4280750859
0.17077315 -0.073416732 -0.10485623 4280750859
0.17027767 -0.072709121 -0.10546109 4280750859
0.17038421 -0.071117863 -0.10562545 4280816652
0.16988997 -0.07041201 -0.10622881 4280816652
0.16939573 -0.069706149 -0.10683218 4281146648
0.16890149 -0.069000296 -0.10743554 4281611569
0.16840725 -0.068294443 -0.10803889 4281023029
0.16791299 -0.06758859 -0.10864226 4280760629
0.16741875 -0.06688273 -0.10924562 4280694836
0.16692451 -0.066176876 -0.10984898 4279900698
0.16643026 -0.065471023 -0.11045235 4281676852
0.16593601 -0.064765163 -0.11105571 4280827707
0.16544177 -0.06405931 -0.11165907 4280826937
0.16494752 -0.063353457 -0.11226244 4280300593
0.16445328 -0.062647603 -0.11286579 4280227606
0.16395903 -0.061941743 -0.11346915 4280489749
0.16346478 -0.06123589 -0.11407252 4280494888
0.16297054 -0.060530033 -0.11467588 4280563250
0.16185465 -0.060679808 -0.1157437 4280431664
0.16135919 -0.059972201 -0.11634855 4279768855
0.16086371 -0.059264593 -0.11695341 4281021234
0.16036823 -0.058556985 -0.11755827 4280367156
0.15987277 -0.057849381 -0.11816313 4279833878
0.15937729 -0.057141773 -0.11876799 4279899671
0.15825281 -0.057279315 -0.11984631 4281018152
0.15775612 -0.056569956 -0.12045266 4280430892
0.15725942 -0.055860598 -0.12105902 4280298794
0.15676272 -0.055151243 -0.12166538 4280428065
0.15563212 -0.055280004 -0.12275117 4280493858
0.1551342 -0.054568894 -0.12335902 4280889386
0.15463626 -0.053857785 -0.12396687 4279969567
0.15413834 -0.053146675 -0.12457473 4280226577
0.15364042 -0.052435566 -0.12518258 4280289542
0.15250246 -0.05255381 -0.12627734 4280157956
0.1520033 -0.05184095 -0.1268867 4280355335
0.1747044 -0.012780186 -0.11124524 4280222977
0.17425554 -0.012139136 -0.11179321 4280222977
0.17380667 -0.011498086 -0.11234117 4280222977
0.17401257 -0.010048675 -0.11238425 4280222977
0.17356493 -0.0094093783 -0.11293072 4280157954
0.17311729 -0.0087700803 -0.11347719 4280157954
0.17332807 -0.0073276898 -0.11351428 4279764993
0.17288166 -0.0066901431 -0.11405925 4278912000
0.17309615 -0.0052529867 -0.11409184 4278846208
0.17331307 -0.003819362 -0.11412146 4278453248
0.17286912 -0.0031853188 -0.11466344 4278453248
0.17308971 -0.0017569404 -0.11468855 4278848006
0.17331278 -0.00033205195 -0.11471067 4279700749
0.17353828 0.0010893185 -0.11472979 4280094991
0.17376627 0.0025072098 -0.11474591 4280029198
0.17399669 0.0039215679 -0.11475906 4279568647
0.17355885 0.0045468546 -0.11529355 4279371782
0.17379296 0.0059559871 -0.11530218 4279044102
0.17335635 0.0065795216 -0.11583517 4278978309
0.17359413 0.0079833781 -0.11583932 4278978309
0.17315875 0.0086051598 -0.11637082 4279109125
0.17340022 0.010003779 -0.11637048 4279174918
0.17296606 0.010623809 -0.11690048 4279240709
0.17253192 0.011243842 -0.11743049 4279372549
0.17209777 0.011863874 -0.11796048 4279306756
0.17166361 0.012483904 -0.11849048 4278781184
0.17191242 0.013871999 -0.11848117 4278715904
0.17147949 0.014490277 -0.11900967 4278715648
0.17104657 0.015108557 -0.11953817 4278649856
0.17061365 0.01572684 -0.12006667 4278649857
0.17086859 0.017106166 -0.12004988 4278649857
0.17043689 0.017722698 -0.12057689 4278519041
0.1700052 0.018339222 -0.12110389 4278584834
0.1695735 0.018955752 -0.12163089 4278781443
0.1691418 0.01957228 -0.1221579 4278781443
0.1687101 0.02018881 -0.12268491 4278715650
0.16827841 0.020805338 -0.12321191 4278715650
0.16784671 0.021421866 -0.12373891 4278781443
0.16741501 0.022038396 -0.12426592 4278584838
0.16698331 0.022654925 -0.12479293 4278521870
0.16655162 0.023271453 -0.12531994 4278982421
0.16611992 0.023887983 -0.12584694 4278721048
0.16568822 0.024504511 -0.12637395 4278655253
0.16525652 0.025121039 -0.12690096 4278655253
0.16482481 0.025737569 -0.12742797 4278720274
0.16439313 0.026354099 -0.12795497 4278391309
0.16325393 0.026237601 -0.12905122 4278586631
0.16282101 0.026855882 -0.12957972 4278717445
0.16238809 0.027474165 -0.13010824 4278914824
0.16195516 0.028092442 -0.13063674 4279047180
0.16152224 0.028710721 -0.13116524 4279047180
0.16108932 0.029329004 -0.13169375 4278981641
0.16065639 0.029947283 -0.13222225 4278981641
0.15950739 0.029844793 -0.13333049 4278652422
0.15907323 0.030464826 -0.1338605 4278586629
0.15863909 0.031084858 -0.1343905 4278586629
0.15748517 0.030989356 -0.13550474 4278652422
0.15704979 0.031611137 -0.13603623 4278783238
0.15589221 0.031520907 -0.13715497 4278849031
0.1554556 0.032144442 -0.13768795 4278783238
0.15429433 0.032059446 -0.13881119 4278717445
0.1538565 0.032684732 -0.13934568 4278849031
0.15269156 0.032605018 -0.14047338 4278914824
0.15152414 0.032528784 -0.14160411 4278914824
0.15108386 0.033157568 -0.14214158 4278849031
0.14991279 0.033086605 -0.14327678 4278717445
0.14947128 0.033717148 -0.14381577 4278520836
0.14829651 0.033651423 -0.14495546 4278520836
0.14785376 0.03428372 -0.14549595 4278718215
0.14667533 0.034223258 -0.14664012 4278784008
0.14623138 0.034857307 -0.14718211 4278652422
0.14504926 0.034802113 -0.14833076 4278586629
0.14460407 0.035437904 -0.14887424 4278520836
0.14341827 0.035387941 -0.15002741 4278520836
0.14297184 0.036025491 -0.15057239 4278718217
0.14252543 0.036663037 -0.15111735 4278718215
0.14207903 0.037300579 -0.15166233 4278586629
0.1416326 0.037938125 -0.1522073 4278652422
0.14118619 0.038575672 -0.15275227 4278718215
0.17011827 0.073968038 -0.13038747 4278849285
0.16972582 0.074528515 -0.13086656 4278849285
0.16933337 0.075089 -0.13134566 4278717699
0.16894092 0.075649478 -0.13182476 4278585859
0.16931239 0.076862432 -0.13166572 4278454273
0.16892117 0.077421166 -0.13214332 4278585859
0.16852994 0.077979892 -0.13262092 4278651652
0.16890629 0.079185829 -0.13245589 4278651906
0.16851629 0.079742812 -0.13293199 4278586113
0.16889635 0.08094351 -0.13276246 4278651652
0.16850758 0.081498735 -0.13323706 4278717445
0.16889128 0.082694158 -0.13306306 4278520836
0.16927744 0.083886087 -0.13288605 4278521349
0.16889113 0.08443781 -0.13335767 4278587142
0.16928101 0.085624494 -0.13317616 4278916361
0.16967329 0.086807661 -0.13299167 4278850568
0.16928943 0.087355874 -0.1334603 4278653189
0.16968542 0.088533811 -0.13327129 4278586883
0.17008387 0.089708216 -0.13307934 4278783238
0.16970244 0.090252936 -0.13354495 4278718215
0.17010458 0.091422111 -0.13334846 4278916361
0.16972439 0.091965072 -0.13381259 4279903256
0.17013016 0.093128979 -0.13361163 4280299547
0.16975121 0.093670189 -0.13407426 4280233754
0.17016068 0.094828829 -0.13386883 4280167961
0.16978294 0.095368296 -0.13432996 4280035092
0.17019612 0.096521705 -0.13412 4279703047
0.16981961 0.097059414 -0.13457963 4279374082
0.17023642 0.098207548 -0.13436522 4279438340
0.17065573 0.099352203 -0.13414776 4279372547
0.17028168 0.09988641 -0.13460439 4279438340
0.17070463 0.10102579 -0.13438249 4279439110
0.17113006 0.10216168 -0.13415757 4280167973
0.17075847 0.10269238 -0.1346112 4280496938
0.17118755 0.10382301 -0.1343818 4279378974
0.17081718 0.10435196 -0.13483395 4279703315
0.17124994 0.10547733 -0.13460006 4279900692
0.17088078 0.10600454 -0.13505071 4280300329
0.17051163 0.10653173 -0.13550135 4280101927
0.17094934 0.10765011 -0.13526146 4279312411
0.17058142 0.10817556 -0.13571061 4279767825
0.17021349 0.10870101 -0.13615976 4279833100
0.17065607 0.10981237 -0.13591389 4279700999
0.17028937 0.11033607 -0.13636155 4279569926
0.16992268 0.11085977 -0.13680921 4279372547
0.16955598 0.11138347 -0.13725686 4279439110
0.17000471 0.11248608 -0.13700348 4279307524
0.16963924 0.11300803 -0.13744964 4279045635
0.16927376 0.11352998 -0.13789581 4278914051
0.1689083 0.11405192 -0.13834196 4278914051
0.16854282 0.11457387 -0.13878812 4278782722
0.16817735 0.11509582 -0.13923427 4278848261
0.16781189 0.11561777 -0.13968045 4278914056
0.16662239 0.11557306 -0.1408381 4278782470
0.1662557 0.11609676 -0.14128576 4278782470
0.16588899 0.11662046 -0.14173342 4278782470
0.16552229 0.11714415 -0.14218107 4278782470
0.1651556 0.11766785 -0.14262873 4278651654
0.16395877 0.11763367 -0.14379537 4278520838
0.16359085 0.11815912 -0.14424452 4278520838
0.16322292 0.11868457 -0.14469367 4278652937
0.16202118 0.11865738 -0.1458663 4278587661
0.16165201 0.11918459 -0.14631696 4278653967
0.16128287 0.11971179 -0.1467676 4278456588
0.16007623 0.11969161 -0.14794622 4278390795
0.15970585 0.12022057 -0.14839837 4278390795
0.15849553 0.12020566 -0.14958148 4278390795
0.15812394 0.12073635 -0.15003511 4278456075
0.15690991 0.12072668 -0.15122272 4278521868
0.15569347 0.12072053 -0.15241331 4278522381
0.15531941 0.12125473 -0.15286995 4278653967
0.15409926 0.12125382 -0.15406506 4278522897
0.15287668 0.12125642 -0.15526313 4278522897
0.15165162 0.1212625 -0.1564642 4278522897
0.15127389 0.12180196 -0.15692534 4278522897
0.15004517 0.12181332 -0.15813088 4278522897
0.14966621 0.12235454 -0.15859352 4278522897
0.14843382 0.12237115 -0.15980357 4278522897
0.14719896 0.12239124 -0.16101664 4278522897
0.14681754 0.12293597 -0.16148226 4278522897
0.14643613 0.12348069 -0.16194789 4278522897
0.14605471 0.1240254 -0.16241351 4278522897
0.14481373 0.12405428 -0.16363403 4278522897
0.19190681 0.18930033 -0.12852038 4278522897
0.19161738 0.18971367 -0.12887372 4278522897
0.19038865 0.18972503 -0.13007928 4278522897
0.18574481 0.18938336 -0.13457067 4278522897
0.18450505 0.18941046 -0.13578971 4278522897
0.18326283 0.18944108 -0.13701175 4278522897
0.18296482 0.18986669 -0.13737556 4278522897
0.18171892 0.18990257 -0.13860209 4278522897
0.18141967 0.19032994 -0.13896739 4278522897
0.18112043 0.1907573 -0.13933271 4278522897
0.18082118 0.19118467 -0.13969801 4278522897
0.17956917 0.19122931 -0.14093204 4278522897
0.1792687 0.19165842 -0.14129883 4278522897
0.17896822 0.19208753 -0.14166564 4278522897
0.17771129 0.19213918 -0.14290565 4278522897
0.1774096 0.19257003 -0.14327395 4278522897
0.1771079 0.1930009 -0.14364225 4278522897
0.1768062 0.19343178 -0.14401057 4278522897
0.17554314 0.19349216 -0.14525804 4278522897
0.17524022 0.1939248 -0.14562786 4278522897
0.17493729 0.19435741 -0.14599766 4278522897
0.17463437 0.19479004 -0.14636746 4278522897
0.17336516 0.19485919 -0.14762244 4278522897
0.17306101 0.19529356 -0.14799373 4278522897
0.17275687 0.19572793 -0.14836502 4278522897
0.17148277 0.19580409 -0.14962599 4278522897
0.17117739 0.19624022 -0.14999878 4278522897
0.170872 0.19667633 -0.15037158 4278522897
0.17056663 0.19711246 -0.15074438 4278522897
0.17026125 0.19754858 -0.15111718 4278522897
0.16995588 0.1979847 -0.15148997 4278522897
0.1677534 0.19938675 -0.15388429 4278522897
0.16744679 0.19982463 -0.15425859 4278522897
0.16714019 0.2002625 -0.15463288 4278522897
0.16683358 0.20070037 -0.15500717 4278522897
0.16652697 0.20113826 -0.15538147 4278522897
0.16523324 0.20124242 -0.1566664 4278522897
0.074162781 -0.29633629 -0.16379645 4279057485
0.073413439 -0.29526612 -0.16471122 4278925899
0.074335121 -0.29135215 -0.16445975 4278860106
0.074705958 -0.28839481 -0.16458954 4278663241
0.075081684 -0.28544456 -0.16471335 4278663500
0.1757305 -0.087470368 -0.098926805 4281930767
0.17523013 -0.08675576 -0.099537648 4281864974
0.17472975 -0.086041145 -0.1001485 4281864974
0.17422937 -0.085326537 -0.10075934 4281405707
0.17431545 -0.083705992 -0.1009455 4281078540
0.17381631 -0.082993135 -0.10155486 4280685579
0.17390604 -0.081377871 -0.10173653 4280685579
0.17340812 -0.080666766 -0.10234439 4280619786
0.17350154 -0.079056755 -0.10252157 4280751372
0.17300484 -0.0783474 -0.10312793 4280685579
0.17250814 -0.077638038 -0.10373428 4280750859
0.17201145 -0.076928683 -0.10434064 4280750859
0.17211102 -0.075327411 -0.10451033 4280750859
0.17161554 -0.0746198 -0.10511519 4280750859
0.17112008 -0.073912196 -0.10572004 4280750859
0.1706246 -0.073204584 -0.1063249 4280750859
0.17073029 -0.071612105 -0.10648713 4280816652
0.17023605 -0.070906252 -0.1070905 4280816652
0.16974179 -0.070200391 -0.10769386 4281146648
0.16924755 -0.069494538 -0.10829722 4281611569
0.16875331 -0.068788685 -0.10890058 4281023029
0.16825907 -0.068082824 -0.10950394 4280760629
0.16776481 -0.067376971 -0.1101073 4280694836
0.16727057 -0.066671118 -0.11071067 4279900698
0.16677633 -0.065965258 -0.11131403 4281676852
0.16628209 -0.065259404 -0.11191739 4280827707
0.16578785 -0.064553551 -0.11252075 4280826937
0.16529359 -0.063847698 -0.11312411 4280300593
0.16479935 -0.063141838 -0.11372747 4280227606
0.16430511 -0.062435985 -0.11433084 4280489749
0.16381086 -0.061730128 -0.1149342 4280494888
0.16331661 -0.061024275 -0.11553756 4280563250
0.16220158 -0.061175272 -0.11660751 4280431664
0.1617061 -0.060467664 -0.11721237 4279768855
0.16121064 -0.059760056 -0.11781723 4281021234
0.16071516 -0.059052452 -0.11842209 4280367156
0.1602197 -0.058344845 -0.11902694 4279833878
0.15972422 -0.057637237 -0.1196318 4279899671
0.15922876 -0.056929629 -0.12023667 4281018152
0.1581039 -0.057066649 -0.12131862 4280430892
0.1576072 -0.056357291 -0.12192497 4280298794
0.1571105 -0.055647932 -0.12253133 4280428065
0.15598077 -0.055777919 -0.12361926 4280493858
0.15611711 -0.054229215 -0.12374404 4280889386
0.15498491 -0.0543557 -0.12483496 4279969567
0.15448698 -0.05364459 -0.12544282 4280226577
0.15335111 -0.053765818 -0.12653823 4280289542
0.15349114 -0.052222371 -0.12665853 4280157956
0.15235281 -0.052340094 -0.12775694 4280355335
0.15185367 -0.051627234 -0.12836629 4280093962
0.17456983 -0.012588001 -0.11257578 4280222977
0.17412096 -0.011946951 -0.11312374 4280222977
0.17367209 -0.011305901 -0.11367171 4280222977
0.17387837 -0.0098570101 -0.11371114 4280157954
0.17343073 -0.009217713 -0.11425761 4280157954
0.17364065 -0.0077740969 -0.11429257 4279764993
0.17319423 -0.0071365503 -0.11483754 4278912000
0.17274782 -0.006499005 -0.11538251 4278846208
0.17296268 -0.0050623729 -0.11541147 4278453248
0.17317997 -0.0036292756 -0.11543745 4278453248
0.17339972 -0.0021996717 -0.11546043 4278848006
0.17295697 -0.0015673809 -0.11600091 4279700749
0.17318042 -0.0001430112 -0.11601938 4279898128
0.17340629 0.0012778348 -0.11603487 4280029198
0.17363463 0.0026951989 -0.11604735 4279568647
0.17386542 0.0041090311 -0.11605687 4279371782
0.17409867 0.0055193887 -0.11606336 4279044102
0.17366207 0.0061429231 -0.11659636 4278978309
0.17389898 0.0075480049 -0.11659838 4278978309
0.1734636 0.008169787 -0.11712987 4279109125
0.17302822 0.0087915715 -0.11766137 4279174918
0.17259285 0.0094133541 -0.11819287 4279240709
0.1728359 0.010809701 -0.11818738 4279372549
0.17240176 0.011429733 -0.11871739 4279306756
0.17196761 0.012049763 -0.11924738 4278781184
0.17153345 0.012669795 -0.11977739 4278715904
0.17178263 0.014057362 -0.11976443 4278715648
0.1713497 0.014675641 -0.12029293 4278649856
0.17091678 0.015293924 -0.12082144 4278649857
0.17048386 0.015912201 -0.12134994 4278649857
0.17073916 0.017291008 -0.12132952 4278519041
0.17030747 0.017907532 -0.12185652 4278584834
0.16987577 0.018524062 -0.12238353 4278781443
0.16944407 0.01914059 -0.12291053 4278781443
0.16901237 0.01975712 -0.12343754 4278715650
0.16858068 0.020373648 -0.12396454 4278715650
0.16814898 0.020990176 -0.12449155 4278781443
0.16771728 0.021606706 -0.12501855 4278584838
0.16728558 0.022223234 -0.12554556 4278521870
0.16685389 0.022839762 -0.12607257 4278982421
0.16642219 0.023456292 -0.12659958 4278721048
0.16599049 0.02407282 -0.12712657 4278655253
0.16555879 0.024689348 -0.12765358 4278655253
0.1651271 0.025305878 -0.12818059 4278720274
0.1646954 0.025922408 -0.1287076 4278391309
0.1642637 0.026538935 -0.1292346 4278586631
0.16312414 0.026422966 -0.1303345 4278717445
0.16269122 0.027041249 -0.130863 4278914824
0.1622583 0.027659526 -0.1313915 4279047180
0.16182537 0.028277807 -0.13192001 4279047180
0.16139244 0.02889609 -0.13244851 4278981641
0.16095951 0.029514367 -0.13297701 4278981641
0.16052659 0.030132649 -0.13350551 4278652422
0.15937723 0.030030685 -0.1346174 4278586629
0.15894307 0.030650718 -0.13514739 4278586629
0.15779002 0.030553984 -0.13626379 4278652422
0.15735464 0.031175766 -0.13679528 4278783238
0.15619792 0.03108431 -0.13791615 4278849031
0.15576132 0.031707842 -0.13844913 4278783238
0.15460089 0.031621624 -0.13957451 4278717445
0.15416306 0.03224691 -0.140109 4278849031
0.15299898 0.032165971 -0.14123884 4278914824
0.15255992 0.032793008 -0.14177483 4278914824
0.15139215 0.032717295 -0.14290918 4278849031
0.15022193 0.032645106 -0.14404652 4278717445
0.14978042 0.033275649 -0.14458551 4278520836
0.14860651 0.033208691 -0.14572734 4278520836
0.14816377 0.033840988 -0.14626782 4278718215
0.1469862 0.033779304 -0.14741413 4278784008
0.14654224 0.034413349 -0.14795612 4278652422
0.14536098 0.034356933 -0.1491069 4278586629
0.1449158 0.034992721 -0.14965038 4278520836
0.14373085 0.034941532 -0.1508057 4278520836
0.14328443 0.035579082 -0.15135068 4278718217
0.14283802 0.036216628 -0.15189564 4278718215
0.14239161 0.036854174 -0.15244062 4278586629
0.14120054 0.036811758 -0.1536034 4278652422
0.1407529 0.037451059 -0.15414988 4278718215
0.14030525 0.038090359 -0.15469635 4278915594
0.16963494 0.072914891 -0.13170595 4278849285
0.17000063 0.074136063 -0.13155077 4278849285
0.16960816 0.074696548 -0.13202988 4278717699
0.16921571 0.075257026 -0.13250896 4278585859
0.16882326 0.07581751 -0.13298807 4278454273
0.1691951 0.077029943 -0.13282537 4278585859
0.16880387 0.077588677 -0.13330297 4278651652
0.16841266 0.078147404 -0.13378057 4278651906
0.16878937 0.079352811 -0.13361193 4278586113
0.16839936 0.079909787 -0.13408804 4278586113
0.16877979 0.081109963 -0.13391486 4278717445
0.16916265 0.082306616 -0.13373871 4278520836
0.1687751 0.08286009 -0.13421182 4278455556
0.16916163 0.08405149 -0.13403119 4278587142
0.16955064 0.08523941 -0.13384753 4278916361
0.16916555 0.085789375 -0.13431765 4278916361
0.16955821 0.086972013 -0.13412954 4278653189
0.16995336 0.088151172 -0.1339384 4278586883
0.16957071 0.088697642 -0.13440552 4278717445
0.1699695 0.089871533 -0.13420992 4278718215
0.16958809 0.090416238 -0.13467553 4278916361
0.1699906 0.091584891 -0.13447542 4279903256
0.17039552 0.09275002 -0.13427232 4280299547
0.17001656 0.09329123 -0.13473496 4280233754
0.16963761 0.093832441 -0.13519758 4280167961
0.17004743 0.094990566 -0.13498852 4280035092
0.17045975 0.096145198 -0.13477641 4279703047
0.17008324 0.096682906 -0.13523605 4279374082
0.17049921 0.097832277 -0.13501948 4279438340
0.17012392 0.098368235 -0.13547762 4279372547
0.17054358 0.099512361 -0.13525653 4279438340
0.17096569 0.10065296 -0.13503247 4279439110
0.17059286 0.10118543 -0.13548763 4280167973
0.17101866 0.10232079 -0.13525906 4280496938
0.17064705 0.1028515 -0.1357127 4279378974
0.17107651 0.10398158 -0.13547967 4279703315
0.17070614 0.10451054 -0.13593182 4279900692
0.17113927 0.10563539 -0.1356943 4280300329
0.17077012 0.10616259 -0.13614495 4280101927
0.17040096 0.1066898 -0.13659561 4279312411
0.17083903 0.10780764 -0.13635206 4279767825
0.17047112 0.10833309 -0.13680121 4279833100
0.17010318 0.10885855 -0.13725036 4279700999
0.17054613 0.10996938 -0.13700086 4279569926
0.17017943 0.11049307 -0.13744852 4279372547
0.16981272 0.11101678 -0.13789618 4279439110
0.16944604 0.11154047 -0.13834383 4279307524
0.16989514 0.11264256 -0.13808681 4279045635
0.16952966 0.11316451 -0.13853297 4278914051
0.1691642 0.11368646 -0.13897914 4278782722
0.16879873 0.11420841 -0.13942529 4278782722
0.16843325 0.11473035 -0.13987145 4278848261
0.16806778 0.1152523 -0.1403176 4278914056
0.16687915 0.11520636 -0.14147741 4278782470
0.16651244 0.11573007 -0.14192507 4278782470
0.16614576 0.11625376 -0.14237273 4278782470
0.16577905 0.11677746 -0.14282039 4278782470
0.16541235 0.11730117 -0.14326803 4278651654
0.16421638 0.11726575 -0.14443681 4278520838
0.16384847 0.11779121 -0.14488596 4278520838
0.16348055 0.11831665 -0.14533511 4278652937
0.16227965 0.11828823 -0.14650989 4278587661
0.16191049 0.11881544 -0.14696054 4278653967
0.16154134 0.11934264 -0.1474112 4278456588
0.16033557 0.11932124 -0.14859195 4278390795
0.15996519 0.1198502 -0.1490441 4278390795
0.15875573 0.11983407 -0.15022932 4278390795
0.15838413 0.12036476 -0.15068297 4278456075
0.15717097 0.12035386 -0.15187272 4278521868
0.15595537 0.12034648 -0.15306544 4278522381
0.15558133 0.12088069 -0.15352209 4278653967
0.15436202 0.12087854 -0.15471932 4278522897
0.15314031 0.12087991 -0.15591954 4278522897
0.1527638 0.12141762 -0.15637916 4278522897
0.15153837 0.12142423 -0.15758389 4278522897
0.15031052 0.12143437 -0.15879159 4278522897
0.14993156 0.12197559 -0.15925421 4278522897
0.14870003 0.12199097 -0.1604664 4278522897
0.14831984 0.12253392 -0.16093051 4278522897
0.14793965 0.1230769 -0.16139466 4278522897
0.14670318 0.12309927 -0.16261286 4278522897
0.14632177 0.12364399 -0.16307847 4278522897
0.14594036 0.12418871 -0.16354409 4278522897
0.1881291 0.18946514 -0.13301042 4278522897
0.18689388 0.18948577 -0.1342271 4278522897
0.1834715 0.18914308 -0.13753133 4278522897
0.18317348 0.18956868 -0.13789514 4278522897
0.18192844 0.18960333 -0.1391238 4278522897
0.1816292 0.19003069 -0.13948911 4278522897
0.18132997 0.19045806 -0.13985442 4278522897
0.18008004 0.19049971 -0.14108907 4278522897
0.17977956 0.19092885 -0.14145587 4278522897
0.17947909 0.19135796 -0.14182268 4278522897
0.17917861 0.19178706 -0.14218949 4278522897
0.17792253 0.19183749 -0.14343163 4278522897
0.17762084 0.19226834 -0.14379993 4278522897
0.17731915 0.19269921 -0.14416823 4278522897
0.17701745 0.19313009 -0.14453655 4278522897
0.17575525 0.19318923 -0.14578617 4278522897
0.17545232 0.19362187 -0.14615598 4278522897
0.1751494 0.19405448 -0.14652579 4278522897
0.17484647 0.19448711 -0.14689559 4278522897
0.17357813 0.19455504 -0.14815269 4278522897
0.17327398 0.19498941 -0.148524 4278522897
0.17296983 0.19542378 -0.14889529 4278522897
0.17266569 0.19585815 -0.1492666 4278522897
0.1713912 0.19593483 -0.15053119 4278522897
0.17108583 0.19637096 -0.15090398 4278522897
0.17078045 0.19680709 -0.15127678 4278522897
0.17047508 0.1972432 -0.15164958 4278522897
0.16766147 0.19951802 -0.15479313 4278522897
0.16735488 0.1999559 -0.15516742 4278522897
0.074687481 -0.29708564 -0.16510288 4279057485
0.075602911 -0.29316273 -0.16484952 4278925899
0.075969577 -0.29019946 -0.16497801 4278860106
0.076341115 -0.28724322 -0.16510054 4278663241
0.076158963 -0.28523964 -0.16561094 4278663500
0.17608087 -0.087970749 -0.099799186 4281930767
0.1755805 -0.087256141 -0.10041004 4281864974
0.17508012 -0.086541526 -0.10102088 4281864974
0.17457974 -0.085826911 -0.10163173 4281405707
0.17407936 -0.085112303 -0.10224258 4281078540
0.17416582 -0.083492287 -0.10242511 4280685579
0.17366666 -0.082779422 -0.10303445 4280685579
0.17375678 -0.081164695 -0.1032125 4280619786
0.17325884 -0.080453582 -0.10382035 4280751372
0.17276092 -0.079742469 -0.1044282 4280685579
0.17285594 -0.078134745 -0.10460026 4280750859
0.17235924 -0.077425383 -0.10520662 4280750859
0.17245795 -0.07582289 -0.10537416 4280750859
0.17196248 -0.075115278 -0.10597903 4280750859
0.17146701 -0.074407674 -0.10658389 4280750859
0.17097154 -0.073700063 -0.10718875 4280750859
0.17107637 -0.072106346 -0.10734882 4280816652
0.17058212 -0.071400493 -0.10795218 4280816652
0.17008787 -0.07069464 -0.10855555 4281146648
0.16959363 -0.06998878 -0.10915891 4281611569
0.16909939 -0.069282927 -0.10976227 4281023029
0.16860513 -0.068577074 -0.11036564 4280760629
0.16811089 -0.06787122 -0.11096899 4280694836
0.16761665 -0.06716536 -0.11157236 4279900698
0.16712241 -0.066459507 -0.11217572 4281676852
0.16662815 -0.065753654 -0.11277908 4280827707
0.16613391 -0.065047801 -0.11338244 4280826937
0.16563967 -0.06434194 -0.11398581 4280300593
0.16514543 -0.063636087 -0.11458917 4280227606
0.16465119 -0.062930234 -0.11519253 4280489749
0.16415693 -0.062224377 -0.1157959 4280494888
0.16304399 -0.062378358 -0.11686649 4280563250
0.16254853 -0.06167075 -0.11747135 4280431664
0.16205305 -0.060963143 -0.11807621 4279768855
0.16155759 -0.060255539 -0.11868107 4281021234
0.16106211 -0.059547931 -0.11928593 4280367156
0.16056663 -0.058840323 -0.11989079 4279833878
0.16007116 -0.058132716 -0.12049565 4279899671
0.15894839 -0.058272712 -0.12157824 4281018152
0.15845169 -0.057563353 -0.1221846 4280430892
0.15795499 -0.056853995 -0.12279095 4280298794
0.15745831 -0.056144636 -0.12339731 4280428065
0.1569616 -0.055435278 -0.12400366 4280493858
0.15583149 -0.055564739 -0.12509522 4280889386
0.15533356 -0.054853629 -0.12570308 4279969567
0.15483564 -0.05414252 -0.12631093 4280226577
0.15433772 -0.05343141 -0.12691878 4280289542
0.1538398 -0.052720297 -0.12752664 4280157956
0.15270233 -0.052839249 -0.12862718 4280355335
0.15220317 -0.052126389 -0.12923653 4280093962
0.15170403 -0.051413529 -0.12984589 4280359192
0.17353752 -0.011113724 -0.11500226 4280157954
0.17374417 -0.0096653588 -0.11503806 4280157954
0.17329653 -0.0090260589 -0.11558453 4279764993
0.17350683 -0.0075829714 -0.11561585 4278912000
0.17306042 -0.0069454261 -0.11616082 4278846208
0.17327441 -0.0055075688 -0.11618764 4278453248
0.17282923 -0.0048717745 -0.11673111 4278453248
0.17304687 -0.0034391945 -0.11675345 4278848006
0.17326698 -0.0020101191 -0.1167728 4279700749
0.17348957 -0.00058452436 -0.11678913 4279898128
0.17371458 0.00083754677 -0.11680249 4280029198
0.17394207 0.0022561362 -0.11681284 4279568647
0.17350301 0.002883174 -0.11734883 4279371782
0.17373416 0.0042964877 -0.1173547 4279044102
0.17396778 0.0057063182 -0.11735756 4278978309
0.17353117 0.0063298526 -0.11789055 4278978309
0.17376846 0.0077344067 -0.11788893 4279109125
0.17333308 0.0083561912 -0.11842043 4279174918
0.1728977 0.0089779738 -0.11895193 4279240709
0.17246233 0.0095997564 -0.11948343 4279372549
0.17202695 0.010221541 -0.12001493 4279306756
0.17227161 0.011615608 -0.12000431 4278781184
0.17183745 0.012235641 -0.12053431 4278715904
0.1714033 0.012855673 -0.12106431 4278715648
0.17165284 0.014242711 -0.12104772 4278649856
0.17121992 0.014860994 -0.12157623 4278649857
0.17078699 0.015479272 -0.12210473 4278649857
0.17104144 0.01685931 -0.12208216 4278519041
0.17060974 0.017475834 -0.12260916 4278584834
0.17017806 0.018092366 -0.12313616 4278781443
0.16974635 0.018708892 -0.12366317 4278781443
0.16931465 0.019325424 -0.12419018 4278715650
0.16888295 0.01994195 -0.12471718 4278715650
0.16845126 0.020558478 -0.12524419 4278781443
0.16801956 0.021175008 -0.12577119 4278584838
0.16758786 0.021791536 -0.1262982 4278521870
0.16715616 0.022408064 -0.12682521 4278982421
0.16672446 0.023024594 -0.12735221 4278721048
0.16629277 0.023641123 -0.12787922 4278721046
0.16586107 0.024257651 -0.12840623 4278655253
0.16542937 0.024874181 -0.12893324 4278720274
0.16499767 0.025490711 -0.12946025 4278391309
0.16456598 0.026107237 -0.12998724 4278586631
0.16413428 0.026723767 -0.13051425 4278717445
0.16299435 0.026608318 -0.13161778 4278914824
0.16256143 0.027226597 -0.13214628 4279047180
0.16212851 0.027844876 -0.1326748 4279047180
0.16169558 0.028463159 -0.1332033 4278981641
0.16126266 0.029081438 -0.1337318 4278981641
0.16082974 0.029699719 -0.13426031 4278652422
0.15968123 0.02959653 -0.13537432 4278586629
0.15924707 0.030216562 -0.13590433 4278586629
