# .PCD v0.7 - Point Cloud Data file format
VERSION 0.7
FIELDS x y z rgb
SIZE 4 4 4 4
TYPE F F F U
COUNT 1 1 1 1
WIDTH 1014
HEIGHT 1
VIEWPOINT 0 0 0 1 0 0 0
POINTS 1014
DATA ascii
0.032518305 -0.069736496 0.028943954 4278501885
0.03286558 -0.068951286 0.029235356 4278237685
0.033212863 -0.068166077 0.029526757 4285582322
0.033560142 -0.067380868 0.02981816 4290248703
0.034480672 -0.066955619 0.030899553 4294377471
0.034827352 -0.066171758 0.031190451 4294377471
0.035174031 -0.065387905 0.031481352 4294639614
0.034949254 -0.064240038 0.030983765 4294639614
0.035296537 -0.063454822 0.031275168 4294770686
0.035643812 -0.06266962 0.031566568 4294770686
0.035991091 -0.061884411 0.031857971 4294770686
0.035769362 -0.060729768 0.03136294 4294770686
0.036117241 -0.05994321 0.031654842 4294770686
0.035897307 -0.058784503 0.031161321 4294770686
0.036245786 -0.057996582 0.031453729 4294770686
0.036027651 -0.056833811 0.030961717 4294770686
0.036376733 -0.05604453 0.031254631 4294770686
0.036725808 -0.05525526 0.031547539 4294770686
0.036510076 -0.054087058 0.031057542 4294770686
0.036859751 -0.053296432 0.031350955 4294770686
0.037209433 -0.052505795 0.03164437 4294770686
0.036996067 -0.05133215 0.031156337 4294770686
0.037346341 -0.050540164 0.031450253 4294770686
0.037134808 -0.049362469 0.03096378 4294770686
0.037485685 -0.048569128 0.031258199 4294770686
0.037275948 -0.047387369 0.030773234 4294770686
0.037627425 -0.046592664 0.031068159 4294770686
0.037419487 -0.045406848 0.0305847 4294770686
0.037771568 -0.044610783 0.030880129 4294770686
0.037565429 -0.043420885 0.030398184 4294770686
0.037918106 -0.042623475 0.030694114 4294770686
0.037713736 -0.04142949 0.03021363 4294770686
0.038067013 -0.040630717 0.030510066 4294770686
0.03842029 -0.039831948 0.030806499 4294639614
0.038773563 -0.039033182 0.031102933 4294639614
0.038572226 -0.037832439 0.030625012 4294443007
0.038926102 -0.03703231 0.030921951 4294443007
0.038726564 -0.035827495 0.03044554 4294443007
0.039081037 -0.035026018 0.030742981 4294443007
0.038883299 -0.033817131 0.030268081 4294443007
0.039238375 -0.033014297 0.030566024 4294574078
0.039042402 -0.031801321 0.030092588 4294574078
0.039398078 -0.030997129 0.030391034 4294639614
0.039753754 -0.030192934 0.030689482 4294639614
0.03956021 -0.028974561 0.030218104 4294639614
0.039916486 -0.028169012 0.030517055 4294639614
0.040272765 -0.027363457 0.030816007 4293655035
0.04062904 -0.026557907 0.031114956 4290168006
0.040438496 -0.025332754 0.030646095 4289183455
0.040795371 -0.024525849 0.030945549 4289512420
0.040606629 -0.023296624 0.030478198 4292736249
0.040964104 -0.022488363 0.030778155 4293853183
0.040777158 -0.02125507 0.030312313 4291485919
0.041135233 -0.020445453 0.030612774 4291814884
0.040950045 -0.01920807 0.030148406 4294246399
0.041308723 -0.018397091 0.030449372 4294246399
0.041125376 -0.017155664 0.029986549 4294639614
0.04148465 -0.016343333 0.030288016 4294639614
0.041303106 -0.015097837 0.029826704 4294770686
0.04166298 -0.014284152 0.030128675 4294770686
0.042022854 -0.01347046 0.030430647 4294377469
0.041843709 -0.01221954 0.029971346 4294377469
0.042204183 -0.011404499 0.030273819 4292733156
0.042564657 -0.010589456 0.030576292 4291747812
0.042925131 -0.0097744092 0.030878767 4291484640
0.043822229 -0.0094020227 0.031940497 4290694631
0.044718124 -0.00903235 0.033001222 4291155182
0.046148285 -0.0091107851 0.034819223 4291677944
0.047576007 -0.009194619 0.036635175 4291020014
0.049001325 -0.009283877 0.038449116 4290750673
0.050424282 -0.009378585 0.04026109 4289500606
0.052377861 -0.0099295126 0.04282729 4290682561
0.054327808 -0.010488547 0.04539042 4292129746
0.055742364 -0.010602245 0.047195349 4290287542
0.057154492 -0.010721339 0.048998214 4290545579
0.05856422 -0.010845854 0.050799072 4290348200
0.060501613 -0.011433399 0.053351667 4289498791
0.061905973 -0.011570147 0.055148039 4289630377
0.062779076 -0.011252007 0.056189638 4289835211
0.064707436 -0.011859865 0.058734652 4291151071
0.065576971 -0.011549889 0.059773277 4291347430
0.0669723 -0.011706955 0.061562054 4291413223
0.068365268 -0.011869471 0.06334886 4291412971
0.0697558 -0.012037385 0.065133616 4291478764
0.07114394 -0.01221072 0.066916354 4291216878
0.072529703 -0.012389513 0.068697117 4291809015
0.073389024 -0.012102563 0.06972713 4292595187
0.074770562 -0.012290818 0.071504332 4291674085
0.075626902 -0.012010678 0.072531886 4292653262
0.076482013 -0.011733221 0.07355839 4291797953
0.077335924 -0.011458477 0.074583881 4292923877
0.078188635 -0.011186446 0.075608365 4294963711
0.078519724 -0.010437854 0.075886182 4294901502
0.078850806 -0.0096892612 0.076163992 4294901502
0.079181887 -0.0089406688 0.07644181 4294901502
0.079512976 -0.0081920754 0.076719619 4294901502
0.079844058 -0.007443483 0.076997429 4294901502
0.079657719 -0.006208837 0.076532096 4294901502
0.079989396 -0.0054588886 0.076810412 4294901502
0.079804853 -0.0042201737 0.076346584 4294901502
0.079621509 -0.0029787472 0.075883761 4294901502
0.079954393 -0.0022260861 0.076163083 4294901502
0.079772815 -0.00098056137 0.075701721 4294901502
0.079592466 0.0002676461 0.075241417 4294770686
0.079413325 0.0015185663 0.074782118 4294770686
0.07923536 0.0027721983 0.07432384 4294770686
0.079058617 0.0040285424 0.073866554 4294770686
0.078883037 0.0052876291 0.073410228 4294770686
0.07921952 0.006048427 0.073692568 4294770686
0.079045773 0.0073115518 0.073237799 4294770686
0.079382852 0.0080737062 0.073520645 4294770686
0.0792109 0.0093408991 0.073067382 4294770686
0.079548582 0.010104409 0.073350735 4294770686
0.079886265 0.01086792 0.073634081 4294770686
0.080223948 0.01163143 0.073917434 4294770686
0.08056163 0.01239494 0.074200779 4294770686
0.080393277 0.01367027 0.073750541 4294770686
0.080731563 0.014435136 0.074034393 4294770686
0.081069842 0.015200003 0.074318245 4294770686
0.080903895 0.016480757 0.073870018 4294770686
0.08124277 0.017246978 0.074154377 4294770686
0.081581652 0.018013202 0.074438728 4294770686
0.081418075 0.019299412 0.073992468 4294770686
0.081255719 0.020588303 0.073547266 4294770686
0.081595801 0.021357238 0.073832624 4294770686
0.082436517 0.021602148 0.07484705 4294770686
0.082275964 0.022895109 0.074403353 4294770686
0.082616046 0.023664044 0.07468871 4294770686
0.082956128 0.024432978 0.074974075 4294770686
0.047083184 0.067523085 0.0216996 4294770686
0.047468252 0.068393737 0.022022709 4294770686
0.047853317 0.069264382 0.022345817 4294770686
0.048238382 0.070135027 0.022668926 4294770686
0.04812941 0.07154461 0.022268509 4294770686
0.048021607 0.072956949 0.021869058 4294770686
0.048407871 0.073830307 0.022193173 4294770686
0.048301898 0.075246669 0.021795273 4294770686
0.048688766 0.07612139 0.022119891 4294770686
0.04907563 0.076996103 0.022444511 4294770686
0.049462497 0.077870816 0.022769129 4294770686
0.049359519 0.079293966 0.022373745 4294770686
0.049746986 0.080170035 0.022698868 4294770686
0.05013445 0.081046104 0.023023989 4294770686
0.050521914 0.081922174 0.02334911 4294770686
0.050909381 0.082798243 0.023674231 4294770686
0.050810006 0.084229536 0.02328187 4294770686
0.051198069 0.085106961 0.023607494 4294770686
0.051100492 0.086542308 0.023216641 4294180607
0.051489156 0.087421097 0.023542769 4292469997
0.051393352 0.088860556 0.023153383 4291089139
0.051782615 0.089740694 0.023480015 4291089139
0.051688641 0.091184184 0.023092182 4291154932
0.052078504 0.092065677 0.023419315 4290629104
0.052468367 0.09294717 0.02374645 4290431725
0.052376788 0.094396092 0.02336063 4291021799
0.052767254 0.095278941 0.023688268 4288653251
0.037989199 0.16122529 -0.0072508003 4290296780
0.038876101 0.16157462 -0.0061976248 4289638850
0.0397618 0.16192123 -0.0051454571 4287997105
0.040187053 0.16288275 -0.0047886278 4289115586
0.041529629 0.1626063 -0.0030440995 4287734446
0.042411733 0.16294479 -0.0019949493 4289050306
0.042835187 0.16390224 -0.0016396286 4289838543
0.043258637 0.16485967 -0.0012843126 4288785855
0.044138346 0.16519274 -0.00023717363 4289377738
0.045016844 0.16552307 0.00080895238 4288917187
0.045894179 0.16585068 0.0018541197 4288588222
0.046770286 0.1661756 0.0028982367 4289772496
0.048099037 0.165868 0.0046311473 4289904082
0.048972148 0.16618615 0.0056727501 4289838289
0.049844079 0.16650154 0.006713382 4288522429
0.050714787 0.16681427 0.0077529708 4289575117
0.051584296 0.16712427 0.0087915519 4289839059
0.052452609 0.16743155 0.0098291105 4288391613
0.053319745 0.1677361 0.010865722 4289575887
0.054185655 0.16803798 0.011901283 4288654785
0.055050362 0.16833712 0.012935834 4287734198
0.055913873 0.16863358 0.013969383 4288589507
0.056776181 0.1689273 0.015001923 4288260542
0.057637319 0.16921829 0.016033499 4289642195
0.058497231 0.16950659 0.017064029 4288852166
0.059355941 0.16979219 0.018093549 4288786373
0.059767999 0.17072387 0.018439306 4289773527
0.060624905 0.17100538 0.019467315 4287339186
0.061480619 0.1712842 0.020494319 4288457669
0.06233516 0.17156027 0.021520361 4288655048
0.062745415 0.17248787 0.021864604 4290825956
0.063598134 0.17275991 0.022889096 4293523455
0.064449638 0.17302923 0.023912573 4294246399
0.064858697 0.17395411 0.024255816 4294180863
0.065267757 0.17487901 0.024599057 4290702072
0.065676816 0.1758039 0.024942294 4285570218
0.066085875 0.1767288 0.025285536 4278737531
0.066056073 0.17831738 0.024951551 4279395461
0.066465728 0.17924364 0.025295297 4279460479
0.066875391 0.1801699 0.025639042 4279460479
0.06684798 0.1817639 0.025307069 4279723651
0.067258239 0.18269151 0.025651315 4281095544
0.067232616 0.18428965 0.025320815 4290701311
0.067643471 0.1852186 0.025665566 4294954230
0.067619666 0.18682076 0.025336614 4287782793
0.067597061 0.18842563 0.025008673 4292635028
0.067575663 0.19003323 0.024681738 4294948834
0.067555457 0.19164352 0.024355806 4294944200
0.067536429 0.19325656 0.024030842 4294282415
0.067950286 0.19419231 0.024378108 4294938298
0.067933075 0.19580938 0.024054691 4291183471
0.068347536 0.19674648 0.024402464 4292292963
0.068332128 0.19836763 0.024080561 4292292963
0.06831792 0.19999148 0.023759661 4291962960
0.06873358 0.2009313 0.02410844 4291568202
0.06829308 0.20324737 0.023120845 4290323012
0.068282463 0.20487936 0.022802981 4290586184
0.068699919 0.20582324 0.023153268 4289340228
0.068691112 0.2074593 0.022836898 4288353333
0.068683505 0.20909809 0.022521541 4286584622
0.068677068 0.2107396 0.022207141 4286124071
-0.14791885 -0.15820593 -0.18398312 4283459450
-0.14745522 -0.15715763 -0.18359408 4283591036
-0.14765495 -0.15595554 -0.18407269 4283459450
-0.14652795 -0.15506104 -0.182816 4283393657
-0.1460643 -0.15401272 -0.18242696 4283459450
-0.14626224 -0.15280657 -0.18290406 4283459450
-0.145798 -0.15175688 -0.18251452 4283393657
-0.14533375 -0.15070723 -0.18212497 4283590522
-0.14486952 -0.14965759 -0.18173544 4283458936
-0.14440528 -0.14860791 -0.18134589 4283458936
-0.14394104 -0.14755826 -0.18095635 4283524729
-0.1434768 -0.1465086 -0.18056682 4283590522
-0.14301257 -0.14545897 -0.18017727 4283524729
-0.14254832 -0.14440928 -0.17978773 4283524729
-0.14142792 -0.14352973 -0.17853658 4283590522
-0.14096428 -0.14248143 -0.17814754 4283393143
-0.14050065 -0.14143312 -0.1777585 4283393143
-0.14069137 -0.14021066 -0.17822956 4283393143
-0.14022714 -0.13916102 -0.17784002 4283327350
-0.14041609 -0.13793451 -0.17830957 4283327350
-0.14060381 -0.13670526 -0.17877811 4283327350
-0.14079034 -0.13547334 -0.17924567 4283458936
-0.14032431 -0.13441961 -0.17885461 4283458936
-0.14115986 -0.13300133 -0.18017778 4283327350
-0.14199297 -0.1315776 -0.18149889 4283393143
-0.14282374 -0.13014847 -0.18281803 4283261557
-0.14365205 -0.12871391 -0.18413511 4283327350
-0.14447801 -0.1272739 -0.18545023 4283393143
-0.14530152 -0.1258285 -0.18676327 4283392630
-0.14547546 -0.12456807 -0.18722025 4283392630
-0.1456482 -0.12330495 -0.18767622 4283392630
-0.14581978 -0.1220391 -0.18813123 4283392630
-0.14599012 -0.12077052 -0.18858518 4283130485
-0.14551449 -0.11969512 -0.18818608 4283130485
-0.14568304 -0.11842249 -0.18863852 4283130485
-0.14520679 -0.11734571 -0.1882389 4283196278
-0.14473057 -0.11626894 -0.1878393 4283261557
-0.14425433 -0.11519216 -0.1874397 4283064178
-0.1437781 -0.11411539 -0.18704009 4283129971
-0.14330186 -0.11303858 -0.18664047 4283129971
-0.14282563 -0.11196181 -0.18624087 4283129971
-0.14234939 -0.11088504 -0.18584126 4283129971
-0.14187315 -0.10980824 -0.18544166 4283064178
-0.14139692 -0.10873146 -0.18504204 4283064178
-0.14092068 -0.10765468 -0.18464243 4283064178
-0.13980688 -0.10679002 -0.18339682 4283129971
-0.13933124 -0.10571459 -0.18299772 4283064178
-0.13885561 -0.10463918 -0.18259862 4282998385
-0.13774419 -0.10377994 -0.181355 4282998385
-0.13663393 -0.10292342 -0.18011235 4282932592
-0.13552493 -0.10206962 -0.17887077 4282866799
-0.13441712 -0.10121851 -0.17763017 4282998385
-0.1333105 -0.10037011 -0.17639059 4283129971
-0.13283786 -0.099301487 -0.17599401 4282932856
-0.13173304 -0.098457165 -0.17475593 4285301404
-0.1299978 -0.097841233 -0.17267784 4284448923
-0.12952697 -0.096776664 -0.17228277 4284514716
-0.12842576 -0.095940478 -0.17104772 4284318368
-0.12732574 -0.095107011 -0.16981368 4284318368
-0.1268561 -0.09404514 -0.1694196 4284120991
-0.12575789 -0.093215734 -0.16818707 4284055198
-0.12528884 -0.092155233 -0.1677935 4283924382
-0.12419238 -0.091329895 -0.16656241 4283200659
-0.12372395 -0.090270765 -0.16616936 4280964730
-0.12325552 -0.089211613 -0.1657763 4282412176
-0.12278707 -0.088152453 -0.16538322 4283530657
-0.12231864 -0.087093309 -0.16499016 4283004313
-0.12122582 -0.086276107 -0.16376215 4282017678
-0.12075798 -0.085218303 -0.16336958 4282544022
-0.11966696 -0.084405184 -0.1621431 4283136674
-0.11919972 -0.083348744 -0.16175103 4282215572
-0.1187325 -0.082292326 -0.16135898 4281623433
-0.11764386 -0.081484593 -0.16013449 4283005086
-0.11717723 -0.080429524 -0.15974295 4282941348
-0.11609037 -0.079625912 -0.15851992 4282612383
-0.11562433 -0.078572169 -0.15812887 4281364376
-0.1145393 -0.077772602 -0.15690741 4281364376
-0.11407387 -0.076720238 -0.15651686 4281364376
-0.11299064 -0.075924724 -0.15529691 4282352301
-0.11190862 -0.075131938 -0.15407796 4282352301
-0.11144438 -0.074082293 -0.15368842 4280839325
-0.11036416 -0.073293574 -0.15247098 4278931328
-0.10928509 -0.072507575 -0.1512545 4278202737
-0.10882206 -0.071460634 -0.15086597 4278200681
-0.10774484 -0.070678703 -0.14965105 4281553025
-0.10728239 -0.069633096 -0.14926301 4284974261
-0.10620698 -0.068855226 -0.14804959 4285037978
-0.10574514 -0.067810997 -0.14766206 4286024873
-0.10467151 -0.067037188 -0.14645016 4282078848
-0.10421026 -0.065994315 -0.14606313 4278920784
-0.10374904 -0.06495145 -0.14567612 4278855780
-0.10267776 -0.064183064 -0.14446618 4278724194
-0.10221712 -0.063141555 -0.14407966 4278789205
-0.10175648 -0.062100038 -0.14369313 4278723412
-0.10129585 -0.061058532 -0.14330661 4279379782
-0.1008352 -0.060017001 -0.14292009 4280300884
-0.10037457 -0.05897548 -0.14253357 4280432206
-0.099913932 -0.05793396 -0.14214705 4279774276
-0.099453293 -0.056892443 -0.14176053 4279838786
0.017480111 -0.093480058 0.012964655 4278864270
0.02505316 -0.094548061 0.02274047 4278604182
0.028699936 -0.094571203 0.027355595 4278213290
0.029632647 -0.094116114 0.028449271 4278215611
0.029973928 -0.093344465 0.02873564 4278677961
0.02972558 -0.092252195 0.028216211 4278286292
0.029478461 -0.091157228 0.027697835 4278352085
0.029232545 -0.090059549 0.027180467 4278222041
0.028157076 -0.087530009 0.025344964 4289067007
0.027656199 -0.080393888 0.023369564 4282436095
0.028004082 -0.079607323 0.023661472 4279080669
0.028351961 -0.07882075 0.023953376 4278232313
0.028699838 -0.078034192 0.024245279 4278299134
0.029047716 -0.077247627 0.024537185 4278234622
0.029395593 -0.076461069 0.024829088 4278234879
0.029743472 -0.075674504 0.025120992 4278235389
0.030091355 -0.074887931 0.0254129 4278235646
0.030439232 -0.074101374 0.025704803 4278235900
0.03078711 -0.073314801 0.025996709 4278235900
0.031134987 -0.072528243 0.026288612 4278237182
0.032059267 -0.072092116 0.027375195 4278237182
0.032406546 -0.071306907 0.027666599 4278237693
0.032753825 -0.070521705 0.027957998 4278237950
0.033101104 -0.069736496 0.0282494 4278305278
0.033448383 -0.068951286 0.028540801 4278371071
0.0343691 -0.068523318 0.029624414 4280003295
0.034715783 -0.067739457 0.029915314 4284806143
0.035062455 -0.066955619 0.030206209 4293853183
0.035409138 -0.066171758 0.030497108 4293853183
0.035755817 -0.065387905 0.030788008 4294639614
0.036102496 -0.064604059 0.031078905 4294639614
0.036449175 -0.063820198 0.031369805 4294770686
0.036226612 -0.06266962 0.030872013 4294770686
0.036573894 -0.061884411 0.031163415 4294770686
0.036921177 -0.06109919 0.03145482 4294770686
0.036701046 -0.05994321 0.03095909 4294770686
0.037048925 -0.059156641 0.031250995 4294770686
0.036830597 -0.057996582 0.030756777 4294770686
0.037179075 -0.057208661 0.031049186 4294770686
0.037527554 -0.05642074 0.031341594 4294770686
0.037311636 -0.05525526 0.030849377 4294770686
0.037660714 -0.054465979 0.031142291 4294770686
0.038009793 -0.05367671 0.031435199 4294770686
0.037796263 -0.052505795 0.03094501 4294770686
0.038145944 -0.051715158 0.031238426 4294770686
0.03793418 -0.050540164 0.030749695 4294770686
0.038284458 -0.049748171 0.031043615 4294770686
0.038074527 -0.048569128 0.030556442 4294770686
0.038425408 -0.047775779 0.030850865 4294770686
0.038217276 -0.046592664 0.030365204 4294770686
0.03856875 -0.04579797 0.030660126 4294770686
0.038920227 -0.045003265 0.03095505 4294770686
0.038714498 -0.043814726 0.030471403 4294770686
0.039066575 -0.043018669 0.030766832 4294770686
0.038862642 -0.041826062 0.030284692 4294770686
0.039215319 -0.041028649 0.030580623 4294770686
0.039567996 -0.040231235 0.030876553 4293654527
0.039366432 -0.039033182 0.030396381 4290496469
0.039719708 -0.038234413 0.030692814 4288723937
0.040072985 -0.03743564 0.03098925 4289316074
0.039873853 -0.036232181 0.030511139 4291354360
0.040227726 -0.035432059 0.030808076 4293525503
0.040030394 -0.034224533 0.030331474 4293525503
0.04038487 -0.033423051 0.030628914 4294377471
0.040189337 -0.032211456 0.030153822 4294377471
0.040544413 -0.031408619 0.030451765 4294639614
0.040350642 -0.030192934 0.029978136 4294639614
0.040706318 -0.029388741 0.030276584 4294770686
0.041061994 -0.028584547 0.030575031 4294770686
0.040870659 -0.027363457 0.030103462 4294377471
0.041226935 -0.026557907 0.030402413 4292536042
0.04158321 -0.025752358 0.030701363 4287605719
0.041394271 -0.024525849 0.030231806 4288526821
0.04175115 -0.023718938 0.030531261 4293131263
0.04156401 -0.022488363 0.030063214 4293656575
0.041921485 -0.0216801 0.03036317 4292867574
0.041736145 -0.020445453 0.029896634 4290564819
0.041551974 -0.01920807 0.029431056 4294115327
0.041910652 -0.018397091 0.029732021 4294115327
0.042269327 -0.017586116 0.030032985 4294639614
0.042087585 -0.016343333 0.029569468 4294639614
0.042446859 -0.015531003 0.029870935 4294770686
0.04226692 -0.014284152 0.029408926 4294770686
0.042626794 -0.01347046 0.0297109 4294574077
0.042986669 -0.012656774 0.030012868 4294442491
0.042809125 -0.011404499 0.029552873 4294442491
0.043169599 -0.010589456 0.029855348 4294246398
0.044066291 -0.010215712 0.030918781 4294311935
0.044426166 -0.0094020227 0.031220751 4293984255
0.045321058 -0.00903235 0.032282673 4290826208
0.046749197 -0.0091107851 0.034103084 4291087604
0.048174907 -0.009194619 0.035921432 4290824432
0.049598217 -0.009283877 0.037737772 4292133609
0.051551778 -0.0098280208 0.040310081 4288843959
0.05296972 -0.0099295126 0.042121936 4291143882
0.054916654 -0.010488547 0.044688664 4291340230
0.056860015 -0.011055752 0.047252417 4290813886
0.058269519 -0.011176201 0.049057189 4290216614
0.05967667 -0.0113021 0.050859984 4290348200
0.061081383 -0.011433399 0.052660722 4289235617
0.062483735 -0.011570147 0.05445949 4289367203
0.063883655 -0.011712295 0.056256201 4289308865
0.065281175 -0.011859865 0.058050897 4291151069
0.066676326 -0.01201289 0.059843626 4291084254
0.068069048 -0.01217131 0.061634295 4291018461
0.068933979 -0.011869471 0.062671103 4291150821
0.070322499 -0.012037385 0.064458251 4290887649
0.071708627 -0.01221072 0.06624338 4291480052
0.073092379 -0.012389513 0.06802655 4291611638
0.074473709 -0.012573698 0.069807656 4292988916
0.075330213 -0.012290818 0.070837371 4290751954
0.076707356 -0.012484526 0.072615013 4292849356
0.077560864 -0.012208426 0.073642209 4291730875
0.078413174 -0.011935038 0.0746684 4292988133
0.078744255 -0.011186446 0.07494621 4294303993
0.079594791 -0.010917155 0.075970933 4294901503
0.079925276 -0.010169919 0.076248243 4294901503
0.080255762 -0.0094226822 0.076525554 4294901502
0.080586247 -0.0086754467 0.076802865 4294901502
0.080916733 -0.0079282094 0.077080175 4294901502
0.080730759 -0.0066948901 0.076613083 4294901502
0.081061848 -0.0059462981 0.076890901 4294901502
0.080877706 -0.0047089397 0.076425366 4294901502
0.080694765 -0.0034688693 0.075960845 4294901502
0.080513038 -0.0022260861 0.075497314 4294901502
0.080845922 -0.0014734251 0.075776637 4294901502
0.080665946 -0.00022654435 0.075314589 4294770686
0.080487207 0.0010230195 0.074853584 4294770686
0.080309667 0.0022752956 0.074393593 4294770686
0.080133326 0.0035302837 0.0739346 4294770686
0.080468602 0.0042883693 0.074215941 4294770686
0.080294065 0.0055474257 0.073758461 4294770686
0.080629945 0.0063068676 0.074040301 4294770686
0.080457173 0.0075700227 0.073584288 4294770686
0.080793656 0.0083308201 0.073866628 4294770686
0.08113014 0.0090916185 0.074148968 4294770686
0.080959789 0.010360168 0.073695019 4294770686
0.081296876 0.011122322 0.073977858 4294770686
0.081633955 0.011884476 0.074260704 4294770686
0.081466012 0.01315845 0.073808767 4294770686
0.081803694 0.01392196 0.074092112 4294770686
0.082141377 0.014685471 0.074375466 4294770686
0.081975833 0.015964869 0.073925532 4294770686
0.082314111 0.016729735 0.074209385 4294770686
0.082150362 0.018013202 0.073760964 4294770686
0.082489245 0.018779425 0.074045323 4294770686
0.082327269 0.020066991 0.07359837 4294770687
0.082666755 0.020834569 0.073883228 4294770687
0.083006233 0.021602148 0.074168086 4294770687
0.083345719 0.022369727 0.074452944 4294770687
0.083186768 0.023664044 0.074008554 4294770687
0.084024683 0.023904884 0.07502266 4294639615
0.048114467 0.068393737 0.021252576 4294639615
0.048005302 0.069800608 0.020849954 4294639614
0.0488846 0.070135027 0.021898793 4294639614
0.048776634 0.07154461 0.021497179 4294639614
0.049162298 0.072416618 0.021820791 4294639614
0.049056102 0.073830307 0.021420643 4294770686
0.049442369 0.074703664 0.021744758 4294770686
0.049337998 0.07612139 0.021346163 4294770686
0.049724866 0.076996103 0.021670781 4294770686
0.05011173 0.077870816 0.021995401 4294770686
0.050498594 0.078745529 0.022320019 4294770686
0.050397228 0.080170035 0.021923941 4294770686
0.050784692 0.081046104 0.022249062 4294770686
0.051172156 0.081922174 0.022574183 4294639614
0.05155962 0.082798243 0.022899305 4294639614
0.051461253 0.084229536 0.022505745 4294443007
0.051849317 0.085106961 0.022831369 4293259252
0.051752746 0.086542308 0.022439316 4291614968
0.052141409 0.087421097 0.022765445 4291088624
0.052530076 0.088299885 0.023091575 4290759922
0.052435875 0.089740694 0.022701493 4290759922
0.052825138 0.090620831 0.023028124 4290562543
0.052732766 0.092065677 0.022639595 4290299623
0.053122628 0.09294717 0.022966729 4289970658
0.053032059 0.094396092 0.022579711 4290692319
0.037390713 0.15990767 -0.0095174089 4287201683
0.038278405 0.16026105 -0.0084615285 4290820298
0.038704857 0.16122529 -0.008103691 4289574342
0.039590754 0.16157462 -0.007049317 4288390068
0.040016603 0.16253747 -0.0066919876 4288852416
0.040900704 0.16288275 -0.0056391219 4287536556
0.041783623 0.16322526 -0.0045872247 4288129206
0.042208277 0.1641854 -0.0042308979 4289510859
0.043089375 0.1645239 -0.003180549 4288851648
0.04396927 0.16485967 -0.0021312106 4287733167
0.044847969 0.16519274 -0.0010828732 4289377740
0.045725465 0.16552307 -3.5548572e-05 4287732915
0.046601795 0.16585068 0.0010108172 4289311945
0.047476895 0.1661756 0.0020561328 4289838289
0.048803635 0.165868 0.0037914407 4289904082
0.04967574 0.16618615 0.0048342422 4288785601
0.050546665 0.16650154 0.0058760727 4288654015
0.051867414 0.16618039 0.0076063517 4289969875
0.05228487 0.16712427 0.0079566389 4288523199
0.053602044 0.16679494 0.0096839368 4288720578
0.054467548 0.16709816 0.010721201 4289181642
0.054883204 0.16803798 0.011069978 4286944680
0.055746902 0.16833712 0.012105728 4288983752
0.056609411 0.16863358 0.013140475 4288391615
0.057470702 0.1689273 0.014174225 4289313230
0.058330834 0.16921829 0.015206999 4288392128
0.059189741 0.16950659 0.016238729 4287668405
0.060047444 0.16979219 0.017269446 4289839574
0.060459502 0.17072387 0.017615203 4287799737
0.061315406 0.17100538 0.018644409 4288194495
0.062170111 0.1712842 0.019672614 4288326853
0.063023649 0.17156027 0.020699855 4287866302
0.063875951 0.17183365 0.021726042 4290168287
0.064285614 0.17275991 0.022069788 4291089389
0.065136112 0.17302923 0.023094464 4294180863
0.065545179 0.17395411 0.023437707 4294246399
0.065954231 0.17487901 0.023780948 4293656575
0.06636329 0.1758039 0.024124185 4291289317
0.066772349 0.1767288 0.024467427 4281432984
0.067181401 0.17765369 0.024810664 4279261815
0.06759046 0.17857857 0.025153903 4279460225
0.067562871 0.1801699 0.024819734 4279460225
0.067972526 0.18109614 0.025163474 4279197053
0.067946725 0.18269151 0.024830809 4282277250
0.067922108 0.18428965 0.024499111 4292146175
0.067898706 0.18589044 0.024168456 4294555876
0.06787651 0.18749397 0.023838814 4287516025
0.068288572 0.18842563 0.02418457 4291834724
0.068268172 0.19003323 0.023856435 4294932649
0.068248972 0.19164352 0.023529306 4292166251
0.068230949 0.19325656 0.023203144 4291442528
0.068644807 0.19419231 0.02355041 4291050337
0.068628609 0.19580938 0.023225784 4290787165
0.068613611 0.19742917 0.02290218 4291049819
0.068599813 0.19905166 0.022579581 4289865545
0.069015466 0.19999148 0.022928355 4289272631
0.06900347 0.20161806 0.022607271 4289338424
0.069419727 0.20255922 0.022956546 4287699759
0.069409497 0.2041899 0.022636926 4287041829
0.069400497 0.20582324 0.022318356 4285666854
0.069392689 0.2074593 0.022000786 4285601061
0.069810748 0.20840456 0.022351582 4284814884
-0.14647718 -0.15835704 -0.18404047 4283459450
-0.14601414 -0.1573101 -0.18365194 4283591036
-0.14555112 -0.15626316 -0.18326341 4283459450
-0.14574987 -0.15506104 -0.18374327 4283393657
-0.14528623 -0.15401272 -0.18335423 4283459450
-0.14482258 -0.15296443 -0.18296519 4283459450
-0.14435895 -0.15191612 -0.18257615 4283393657
-0.14389531 -0.15086783 -0.18218711 4283590522
-0.14343168 -0.14981952 -0.18179807 4283458936
-0.14296803 -0.14877121 -0.18140903 4283458936
-0.14250439 -0.14772291 -0.18101999 4283524729
-0.14138377 -0.14684065 -0.1797666 4283590522
-0.14092073 -0.14579371 -0.17937806 4283524729
-0.14045767 -0.14474675 -0.17898951 4283524729
-0.13999464 -0.14369981 -0.17860098 4283590522
-0.13953161 -0.14265287 -0.17821245 4283393143
-0.13906856 -0.1416059 -0.1778239 4283393143
-0.13860552 -0.14055896 -0.17743537 4283393143
-0.1387953 -0.13933653 -0.17790769 4283327350
-0.13898382 -0.13811134 -0.17837894 4283327350
-0.13917114 -0.1368835 -0.17884921 4283327350
-0.13935727 -0.1356529 -0.17931846 4283458936
-0.13954221 -0.13441961 -0.17978668 4283458936
-0.13972598 -0.1331836 -0.18025397 4283458936
-0.14120685 -0.1315776 -0.18243575 4283393143
-0.14138702 -0.13033345 -0.18290003 4283393143
-0.14221391 -0.12890023 -0.18422 4283393143
-0.14239106 -0.12764934 -0.18468171 4283327350
-0.14321379 -0.12620664 -0.18599822 4283261557
-0.14338791 -0.1249489 -0.18645738 4283327350
-0.14356087 -0.1236885 -0.18691556 4283327350
-0.14373259 -0.12242537 -0.18737274 4283261557
-0.14390312 -0.1211595 -0.18782888 4283130485
-0.14342868 -0.1200868 -0.1874308 4283130485
-0.14359747 -0.11881688 -0.18788549 4283196278
-0.143765 -0.11754428 -0.18833914 4283262071
-0.14328937 -0.11646885 -0.18794003 4283327350
-0.14217237 -0.11559469 -0.18668969 4283129971
-0.14169733 -0.11452062 -0.1862911 4282998385
-0.14186247 -0.11324257 -0.18674272 4283064178
-0.14138682 -0.11216713 -0.18634361 4283064178
-0.14091121 -0.11109173 -0.18594451 4283064178
-0.14043556 -0.11001629 -0.18554541 4283064178
-0.13995993 -0.10894086 -0.1851463 4282998385
-0.1394843 -0.10786546 -0.1847472 4283129971
-0.13900866 -0.10679002 -0.18434809 4283195251
-0.13853303 -0.10571459 -0.18394899 4283195251
-0.13742203 -0.10485401 -0.18270369 4282998385
-0.13694699 -0.10377994 -0.18230508 4283064178
-0.13583773 -0.10292342 -0.18106122 4282932592
-0.13472973 -0.10206962 -0.17981845 4282998385
-0.13362293 -0.10121851 -0.17857665 4282998385
-0.13314968 -0.10014849 -0.17817955 4283261557
-0.13204469 -0.099301487 -0.17693928 4284512404
-0.13094087 -0.098457165 -0.17570001 4285301920
-0.13046883 -0.097389862 -0.17530392 4284645788
-0.12873681 -0.096776664 -0.17322443 4284448409
-0.12826598 -0.095712095 -0.17282936 4284383646
-0.12716638 -0.094877273 -0.17159362 4284120474
-0.12606795 -0.09404514 -0.17035888 4284252575
-0.12559831 -0.092983283 -0.16996481 4284252575
-0.12450171 -0.092155233 -0.16873157 4284055196
-0.12403267 -0.091094717 -0.16833799 4283857817
-0.12293783 -0.090270765 -0.16710623 4283529370
-0.12246939 -0.089211613 -0.16671316 4283726749
-0.12200095 -0.088152453 -0.16632009 4283661471
-0.12153251 -0.087093309 -0.16592702 4283661471
-0.12106407 -0.086034156 -0.16553396 4283004313
-0.12059563 -0.084974997 -0.1651409 4282806934
-0.1201272 -0.083915852 -0.16474783 4282676121
-0.11903719 -0.083102733 -0.16352014 4282544535
-0.11794838 -0.082292326 -0.16229346 4283268258
-0.11748113 -0.081235871 -0.1619014 4283070879
-0.1170139 -0.080179438 -0.16150934 4283137955
-0.11592748 -0.079374447 -0.16028467 4282414232
-0.11546084 -0.078319348 -0.15989311 4282414232
-0.11437619 -0.077518441 -0.15866989 4281363091
-0.11391015 -0.076464728 -0.15827884 4282349986
-0.11282733 -0.075667858 -0.15705718 4281824412
-0.11174572 -0.074873716 -0.15583654 4282021791
-0.11128088 -0.073822714 -0.1554465 4281233056
-0.11020108 -0.07303264 -0.15422735 4278205807
-0.10912245 -0.07224527 -0.15300921 4278201451
-0.10804499 -0.071460634 -0.15179203 4278200423
-0.10758196 -0.070413694 -0.1514035 4283591833
-0.10650633 -0.069633096 -0.15018788 4284841900
-0.10604389 -0.068587512 -0.14979985 4285037978
-0.10497007 -0.067810997 -0.14858575 4285959080
-0.10450823 -0.066766761 -0.14819822 4279972450
-0.10343621 -0.065994315 -0.14698562 4279051348
-0.10297497 -0.06495145 -0.14659861 4278921057
-0.10251372 -0.063908555 -0.14621156 4278855264
-0.10205249 -0.062865689 -0.14582455 4278788946
-0.10159125 -0.061822817 -0.14543752 4278854739
-0.10113002 -0.06077994 -0.1450505 4279511106
-0.10006215 -0.060017001 -0.14384137 4280103243
-0.10020753 -0.05869418 -0.14427644 4279708483
-0.099140875 -0.05793396 -0.14306833 4279642690
-0.098680235 -0.056892443 -0.14268181 4279444798
-0.098219596 -0.055850923 -0.14229529 4279313212
0.028340813 -0.095029026 0.025575994 4278213287
0.029864108 -0.094887763 0.027480334 4278345130
0.030205389 -0.094116114 0.027766703 4278216124
0.030546671 -0.093344465 0.028053071 4278611396
0.030887952 -0.092572823 0.02833944 4278219981
0.031229232 -0.091801181 0.028625807 4278219981
0.030983089 -0.090706185 0.028106188 4278220243
0.028240016 -0.080393888 0.022673799 4286706431
0.029169289 -0.079944201 0.023766614 4279995588
0.028935777 -0.07882075 0.023257613 4278230773
0.029283654 -0.078034192 0.023549516 4278232058
0.029631533 -0.077247627 0.02384142 4278233598
0.02997941 -0.076461069 0.024133323 4278299391
0.030327288 -0.075674504 0.024425229 4278234365
0.030675171 -0.074887931 0.024717137 4278234879
0.031023046 -0.074101374 0.02500904 4278235132
0.031370927 -0.073314801 0.025300944 4278235389
0.032294799 -0.072877333 0.026389228 4278236157
0.032642078 -0.072092116 0.02668063 4278302463
0.032989357 -0.071306907 0.026972033 4278236925
0.033336636 -0.070521705 0.027263433 4278237182
0.033683915 -0.069736496 0.027554834 4278238204
0.034604225 -0.069307171 0.028640147 4278501631
0.034950905 -0.068523318 0.028931048 4279024113
0.035297584 -0.067739457 0.029221946 4278760941
0.036215458 -0.067315549 0.030305196 4291098879
0.036561541 -0.066533044 0.030595593 4292345855
0.036907617 -0.065750554 0.030885987 4294574078
0.037253696 -0.064968057 0.031176381 4294574078
0.03703098 -0.063820198 0.030676438 4294639614
0.037377656 -0.06303636 0.030967332 4294639614
0.037724335 -0.062252499 0.031258233 4294770686
0.037503984 -0.06109919 0.030760255 4294770686
0.037851259 -0.060313992 0.031051653 4294770686
0.037632741 -0.059156641 0.030555231 4294770686
0.03798062 -0.058370076 0.030847136 4294770686
0.038328499 -0.057583511 0.031139042 4294770686
0.038112376 -0.05642074 0.030644631 4294770686
0.038460854 -0.055632818 0.03093704 4294770686
0.038246535 -0.054465979 0.030444141 4294770686
0.038595609 -0.05367671 0.03073705 4294770686
0.038944688 -0.052887425 0.031029964 4294770686
0.038732767 -0.051715158 0.030539079 4294770686
0.039082445 -0.050924528 0.030832492 4294770686
0.038872298 -0.049748171 0.030343058 4294770686
0.039222572 -0.048956186 0.030636974 4294770686
0.03901425 -0.047775779 0.030149108 4294770686
0.039365128 -0.046982434 0.030443531 4294770686
0.039716005 -0.046189092 0.03073795 4294770686
0.039510079 -0.045003265 0.030252095 4294770686
0.039861556 -0.044208564 0.030547021 4294770686
0.040213034 -0.043413863 0.030841945 4294770686
0.04000951 -0.042222612 0.030358104 4294639614
0.040361587 -0.041426554 0.030653533 4294508284
0.040713664 -0.040630497 0.030948959 4288658396
0.040512536 -0.039433818 0.030467134 4286553020
0.040865213 -0.038636405 0.030763064 4287213528
0.040665854 -0.03743564 0.030282699 4287937251
0.04101913 -0.036636867 0.030579135 4287146956
0.040821601 -0.035432059 0.030100325 4287212749
0.041175477 -0.03463193 0.030397264 4287212749
0.040979747 -0.033423051 0.029919965 4291090934
0.041334227 -0.032621566 0.030217407 4293656575
0.041688703 -0.031820085 0.030514847 4294574079
0.041495379 -0.030605782 0.030039551 4294574079
0.041850455 -0.029802945 0.030337496 4294639614
0.041658893 -0.028584547 0.029863674 4294639614
0.042014569 -0.02778035 0.030162122 4294311935
0.04182484 -0.026557907 0.029689858 4289377980
0.042181116 -0.025752358 0.029988807 4286290375
0.042537391 -0.024946809 0.030287758 4286948305
0.042350061 -0.023718938 0.029817507 4290236908
0.042706933 -0.022912035 0.03011696 4293263359
0.042521402 -0.0216801 0.029648218 4293591039
0.042878877 -0.020871839 0.029948175 4290302674
0.042695142 -0.019635834 0.029480943 4292801779
0.043053221 -0.018826213 0.029781405 4293918719
0.042871252 -0.017586116 0.029315636 4294639614
0.04322993 -0.016775141 0.0296166 4294639614
0.043049794 -0.015531003 0.029152386 4294639614
0.043409068 -0.014718672 0.029453853 4294639614
0.043230742 -0.01347046 0.02899114 4294639614
0.043590616 -0.012656774 0.029293111 4294639614
0.043950491 -0.011843089 0.029595081 4294639614
0.044310365 -0.0110294 0.029897051 4294377471
0.044670239 -0.010215712 0.030199021 4294311935
0.045564719 -0.0098446803 0.031262659 4293656063
0.046458002 -0.0094763627 0.032325275 4290300643
0.04735012 -0.0091107851 0.033386931 4291023094
0.048773818 -0.009194619 0.035207681 4290694129
0.050195117 -0.009283877 0.037026413 4291937003
0.052145652 -0.0098280208 0.039602332 4290879942
0.053561583 -0.0099295126 0.041416582 4291340493
0.055505496 -0.010488547 0.043986905 4291143366
0.057445832 -0.011055752 0.046554267 4291209159
0.058853336 -0.011176201 0.048361424 4289954725
0.060258474 -0.0113021 0.050166618 4290020518
0.061661176 -0.011433399 0.051969752 4289302182
0.063061506 -0.011570147 0.05377093 4289762733
0.064459413 -0.011712295 0.055570036 4288848568
0.065854922 -0.011859865 0.057367131 4290953944
0.067248061 -0.01201289 0.059162255 4290623955
0.068638764 -0.01217131 0.060955334 4290163404
0.070027106 -0.012335181 0.062746435 4290559452
0.071413018 -0.012504452 0.064535476 4290559452
0.072796561 -0.012679174 0.06632255 4291545845
0.07417766 -0.012859292 0.068107575 4291677431
0.075034358 -0.012573698 0.069139495 4292792053
0.076411307 -0.01276334 0.070921034 4290094540
0.077265002 -0.012484526 0.071950436 4292125894
0.078117505 -0.012208426 0.072978824 4291138999
0.078968808 -0.011935038 0.074006215 4293119982
0.079818927 -0.011664392 0.075032651 4293448947
0.080149412 -0.010917155 0.075309962 4293915391
0.080479898 -0.010169919 0.075587273 4294573311
0.080810383 -0.0094226822 0.075864583 4294574079
0.081140868 -0.0086754467 0.076141894 4294574079
0.081471354 -0.0079282094 0.076419204 4294574079
0.081801839 -0.007180973 0.076696508 4294574079
0.081617482 -0.0059462981 0.076228715 4294574079
0.081948563 -0.0051977052 0.076506533 4294574079
0.081766032 -0.0039589913 0.076040305 4294574079
0.081584699 -0.0027175641 0.075575083 4294508543
0.081404567 -0.0014734251 0.075110875 4294508543
0.081225596 -0.00022654435 0.07464762 4294508543
0.081559084 0.00052747293 0.074927449 4294508543
0.081381947 0.0017783928 0.074465752 4294508543
0.081206009 0.0030320249 0.07400506 4294508543
0.081540689 0.0037887543 0.074285895 4294508543
0.081366554 0.0050464547 0.073826715 4294508543
0.081701837 0.0058045401 0.074108049 4294508543
0.081529513 0.007066309 0.073650368 4294442751
0.081865393 0.0078257509 0.073932208 4294442751
0.08220128 0.0085851923 0.074214049 4294442751
0.082537159 0.0093446346 0.074495882 4294442751
0.082367793 0.010613214 0.074040689 4294442751
0.082199648 0.011884476 0.073586538 4294442495
0.082536735 0.012646629 0.073869385 4294376703
0.082873814 0.013408784 0.074152231 4294441983
0.082708076 0.014685471 0.0737001 4294178815
0.083045758 0.015448981 0.073983446 4293981951
0.083383441 0.016212489 0.074266791 4293981951
0.083220102 0.0174946 0.073816672 4293784574
0.083057955 0.018779425 0.073367558 4293784574
0.083396837 0.019545646 0.073651917 4293652990
0.083735719 0.02031187 0.073936269 4293455611
0.084074602 0.021078091 0.074220628 4293455611
0.084413484 0.021844314 0.074504979 4293259002
0.084254913 0.023137305 0.074058846 4293061623
0.084594399 0.023904884 0.074343704 4293193209
0.08543013 0.024142981 0.075358048 4293193209
0.048375621 0.067523085 0.020159334 4292469734
0.048760686 0.068393737 0.020482443 4294311935
0.049145751 0.069264382 0.020805551 4294574078
0.049530819 0.070135027 0.02112866 4294574078
0.049423855 0.07154461 0.020725848 4294770686
0.049809523 0.072416618 0.02104946 4294770686
0.050195187 0.07328862 0.021373071 4294770686
0.050090596 0.074703664 0.020972228 4294770686
0.050476864 0.075577021 0.021296343 4294770686
0.050863128 0.076450378 0.021620458 4294770686
0.050760966 0.077870816 0.021221673 4294770686
0.05114783 0.078745529 0.021546289 4294770686
0.051534697 0.079620242 0.021870909 4294770686
0.05143493 0.081046104 0.021474134 4294770686
0.051822398 0.081922174 0.021799257 4294574079
0.052209862 0.082798243 0.022124378 4293982457
0.052112509 0.084229536 0.021729609 4292009978
0.052500572 0.085106961 0.022055233 4291154669
0.052405007 0.086542308 0.021661982 4290759922
0.05279367 0.087421097 0.021988111 4290562543
0.052699879 0.088860556 0.021596327 4290233830
0.053089142 0.089740694 0.021922959 4290233830
0.053478409 0.090620831 0.022249591 4289839072
0.053387038 0.092065677 0.021859862 4289707225
0.053776905 0.09294717 0.022186996 4289641432
0.053687338 0.094396092 0.02179878 4290626010
0.038994085 0.16026105 -0.009314443 4290229444
0.039420538 0.16122529 -0.0089566056 4287864237
0.03984699 0.1621895 -0.00859877 4288653753
0.04073127 0.16253747 -0.007543691 4288655550
0.041157123 0.16350035 -0.0071863565 4287800241
0.042496275 0.16322526 -0.0054365313 4289247687
0.042920928 0.1641854 -0.0050802045 4289181894
0.043801021 0.1645239 -0.004028657 4288127671
0.04467991 0.16485967 -0.0029781202 4288588222
0.045557607 0.16519274 -0.0019285841 4288851396
0.046434093 0.16552307 -0.00088006095 4289246154
0.047309417 0.16585068 0.00016750349 4289838289
0.048183501 0.1661756 0.001214029 4289969875
0.049508233 0.165868 0.002951734 4288982466
0.050379332 0.16618615 0.0039957338 4288785087
0.051249251 0.16650154 0.0050387629 4289904082
0.052567989 0.16618039 0.0067714397 4289048773
0.052985445 0.16712427 0.0071217269 4288325820
0.054300595 0.16679494 0.0088514322 4289115336
0.055165097 0.16709816 0.009889896 4288326333
0.05558075 0.16803798 0.010238673 4288457919
0.056443445 0.16833712 0.01127562 4288589505
0.057304945 0.16863358 0.012311568 4289247435
0.058165241 0.1689273 0.013346503 4288589507
0.059024367 0.16921829 0.014380476 4287207854
0.059882268 0.16950659 0.015413404 4289181644
0.060738966 0.16979219 0.01644532 4289115851
0.061151024 0.17072387 0.016791077 4287931323
0.062005911 0.17100538 0.017821494 4288918218
0.062859617 0.1712842 0.018850897 4287800507
0.063712142 0.17156027 0.019879336 4289379539
0.064563446 0.17183365 0.020906722 4289181392
0.065413542 0.17210434 0.021933105 4289181392
0.065822601 0.17302923 0.022276344 4291615470
0.066670902 0.17329584 0.023301218 4294049791
0.067079365 0.17421937 0.023643956 4294246399
0.067487821 0.1751429 0.02398669 4293786623
0.067458831 0.1767288 0.023649307 4288861165
0.06786789 0.17765369 0.023992544 4281887107
0.068276942 0.17857857 0.024335781 4279260793
0.068250358 0.1801699 0.024000414 4279260793
0.068224967 0.1817639 0.023666043 4279458172
0.068200752 0.18336068 0.023332642 4283394958
0.068611607 0.18428965 0.023677394 4292605951
0.068589218 0.18589044 0.023345541 4293896915
0.068568036 0.18749397 0.023014689 4287778166
0.068548046 0.18910019 0.022684852 4290913872
0.068529256 0.19070913 0.022356022 4291177044
0.06894251 0.19164352 0.022702785 4290787161
0.068925492 0.19325656 0.022375423 4291445091
0.068909697 0.19487227 0.022049107 4291061630
0.068895102 0.19649072 0.021723801 4292114318
0.069310158 0.19742917 0.022072073 4290602360
0.069297366 0.19905166 0.021748276 4286786366
0.069285765 0.20067689 0.021425486 4286061358
0.069702022 0.20161806 0.021774767 4285863979
0.069692209 0.20324737 0.021453427 4284881447
0.069683611 0.20487936 0.021133156 4284749861
0.070101075 0.20582324 0.021483444 4284422693
0.070518523 0.20676711 0.021833725 4284225314
-0.14636271 -0.15820593 -0.18583767 4283590520
-0.14589906 -0.15715763 -0.18544863 4283459448
-0.14609678 -0.15595554 -0.18592964 4283327862
-0.14563254 -0.15490586 -0.18554009 4283327864
-0.14384794 -0.15416925 -0.18341242 4283393657
-0.1440445 -0.15296443 -0.18389247 4283459450
-0.14358087 -0.15191612 -0.18350343 4283459450
-0.14311723 -0.15086783 -0.18311439 4283327864
-0.14199579 -0.14998147 -0.18185827 4283393657
-0.14153276 -0.14893453 -0.18146974 4283262071
-0.14106973 -0.14788759 -0.18108121 4283393657
-0.14060669 -0.14684065 -0.18069267 4283393657
-0.14014365 -0.14579371 -0.18030414 4283393657
-0.13968061 -0.14474675 -0.17991559 4283458936
-0.13921757 -0.14369981 -0.17952706 4283458936
-0.13875453 -0.14265287 -0.17913853 4283524216
-0.13829148 -0.1416059 -0.17874999 4283458423
-0.13782844 -0.14055896 -0.17836145 4283393143
-0.13736542 -0.13951202 -0.17797291 4283393143
-0.13820472 -0.13811134 -0.17930742 4283327350
-0.13774049 -0.13706169 -0.17891788 4283327350
-0.13792621 -0.13583247 -0.17938884 4283393143
-0.1387601 -0.13441961 -0.18071876 4283393143
-0.13894287 -0.1331836 -0.18118724 4283393143
-0.13977255 -0.13176124 -0.18251365 4283458423
-0.14059988 -0.13033345 -0.1838381 4283326837
-0.1407778 -0.12908658 -0.18430249 4283327350
-0.14095452 -0.12783703 -0.18476592 4283393143
-0.14113006 -0.12658477 -0.1852283 4283327350
-0.14194958 -0.12513933 -0.18654621 4283393143
-0.14212212 -0.12388027 -0.18700607 4283327350
-0.14229344 -0.12261851 -0.18746495 4283261557
-0.14182019 -0.12154847 -0.18706785 4282998899
-0.14134696 -0.12047848 -0.18667077 4282998899
-0.1415159 -0.1192113 -0.18712762 4282998899
-0.14104207 -0.11813994 -0.18673003 4283130485
-0.14056823 -0.11706859 -0.18633243 4283261557
-0.1400944 -0.11599723 -0.18593484 4283261557
-0.13962056 -0.11492588 -0.18553725 4283064178
-0.13914673 -0.11385453 -0.18513966 4283064178
-0.13867289 -0.11278317 -0.18474206 4283064178
-0.13883702 -0.11150512 -0.18519488 4283064178
-0.13836259 -0.1104324 -0.18479678 4283129971
-0.13788815 -0.1093597 -0.1843987 4283063665
-0.13804993 -0.10807623 -0.18484956 4283326837
-0.13757488 -0.10700214 -0.18445095 4283195251
-0.13709985 -0.10592807 -0.18405235 4283129458
-0.13662481 -0.10485401 -0.18365376 4283063665
-0.13551597 -0.10399614 -0.1824082 4283063665
-0.13440838 -0.10314097 -0.18116371 4282998385
-0.13393454 -0.10206962 -0.18076612 4282998385
-0.13346072 -0.10099826 -0.18036851 4282998899
-0.1323555 -0.10014849 -0.17912602 4282998899
-0.13125151 -0.099301487 -0.17788455 4282275696
-0.13077888 -0.098232843 -0.17748797 4282341489
-0.12967665 -0.097389862 -0.176248 4284250517
-0.12857562 -0.09654963 -0.175009 4284776861
-0.12747581 -0.095712095 -0.17377104 4284448923
-0.12700498 -0.094647527 -0.17337596 4284514716
-0.12590697 -0.09381403 -0.17213951 4284514462
-0.12481018 -0.092983283 -0.17090407 4284251290
-0.12434054 -0.091921426 -0.17051001 4284120989
-0.12324553 -0.091094717 -0.16927607 4283989403
-0.12277649 -0.090034217 -0.1688825 4283792796
-0.12230746 -0.088973716 -0.16848893 4283792796
-0.12183842 -0.0879132 -0.16809537 4283726749
-0.12136938 -0.086852692 -0.1677018 4283726749
-0.12090035 -0.085792191 -0.16730824 4283595676
-0.1198095 -0.084974997 -0.16607778 4283661469
-0.11934106 -0.083915852 -0.16568471 4282084238
-0.11887264 -0.082856715 -0.16529165 4281755273
-0.1184042 -0.08179757 -0.16489859 4282413203
-0.11793575 -0.080738395 -0.16450551 4283268512
-0.11684854 -0.079929344 -0.16327813 4282808990
-0.11576255 -0.079122998 -0.16205175 4282151060
-0.11529531 -0.07806655 -0.16165969 4282151060
-0.1142111 -0.077264279 -0.16043483 4281692054
-0.11312805 -0.076464728 -0.15921092 4282810535
-0.11204623 -0.075667858 -0.15798806 4282744742
-0.1115808 -0.074615493 -0.15759751 4282876328
-0.11050078 -0.073822714 -0.15637617 4280311184
-0.10942198 -0.07303264 -0.15515582 4278203238
-0.10834437 -0.07224527 -0.15393649 4278398061
-0.10726792 -0.071460634 -0.15271813 4278199654
-0.10680488 -0.070413694 -0.15232959 4285038761
-0.10634183 -0.069366731 -0.15194105 4284775589
-0.10526782 -0.068587512 -0.15072474 4284709015
-0.10480538 -0.067541927 -0.15033671 4285103773
-0.10373316 -0.066766761 -0.14912191 4278590543
-0.10327133 -0.065722525 -0.14873438 4279314266
-0.10220093 -0.06495145 -0.14752108 4279052127
-0.10173967 -0.063908555 -0.14713405 4278788955
-0.10127844 -0.062865689 -0.14674702 4278854221
-0.1008172 -0.061822817 -0.14636 4278920014
-0.10035597 -0.06077994 -0.14597298 4279511106
-0.099894725 -0.059737056 -0.14558594 4279576899
-0.098828472 -0.05897548 -0.14437613 4279773763
-0.098367833 -0.05793396 -0.14398961 4279707970
-0.097907193 -0.056892443 -0.14360309 4279379003
-0.097446553 -0.055850923 -0.14321657 4279379003
-0.096985914 -0.054809403 -0.14283004 4279772730
0.024092292 -0.094390437 0.01863805 4280578224
0.026801333 -0.09486191 0.022171661 4281170361
0.028915567 -0.095029026 0.024891028 4279791545
0.030436842 -0.094887763 0.026797777 4278409892
0.030778123 -0.094116114 0.027084146 4278215351
0.031707589 -0.093663715 0.028179165 4278413501
0.032048274 -0.092893422 0.028465031 4278284743
0.032388952 -0.092123136 0.028750895 4278284743
0.03214325 -0.091029525 0.028229622 4278219985
0.031898718 -0.089933187 0.027709292 4278615771
0.02940481 -0.08072941 0.022780659 4280255676
0.029752091 -0.079944201 0.02307206 4280255676
0.03009937 -0.079158992 0.023363464 4278229494
0.030446647 -0.07837379 0.023654863 4278361851
0.030215347 -0.077247627 0.023145657 4278232061
0.030563224 -0.076461069 0.02343756 4278232318
0.030911103 -0.075674504 0.023729464 4278233854
0.031258985 -0.074887931 0.024021372 4278233854
0.03160686 -0.074101374 0.024313275 4278235389
0.031954743 -0.073314801 0.024605181 4278235132
0.032877598 -0.072877333 0.025694674 4278235643
