# .PCD v0.7 - Point Cloud Data file format
VERSION 0.7
FIELDS x y z rgb
SIZE 4 4 4 4
TYPE F F F U
COUNT 1 1 1 1
WIDTH 995
HEIGHT 1
VIEWPOINT 0 0 0 1 0 0 0
POINTS 995
DATA ascii
0.051268697 -0.014198057 0.0906142 4289862670
0.05160458 -0.013438616 0.09089604 4289928463
0.052500919 -0.013147597 0.091885589 4289602067
0.053396057 -0.012859292 0.092874132 4289733653
0.054289997 -0.012573698 0.093861669 4289931293
0.054624077 -0.011818326 0.094141997 4289997086
0.055516217 -0.011536801 0.095128022 4290454307
0.056407195 -0.011258017 0.096113078 4289862170
0.056740079 -0.010505356 0.096392401 4289400336
0.057629216 -0.010230613 0.097375914 4291176747
0.057961501 -0.0094793076 0.09765473 4290190104
0.05884885 -0.0092086317 0.098636724 4290124311
0.059734989 -0.0089406688 0.09961772 4289663503
0.060066074 -0.0081920754 0.099895529 4289729296
0.060397159 -0.007443483 0.10017335 4289795341
0.061280936 -0.007180973 0.10115237 4290321685
0.061611421 -0.006433737 0.10142968 4289926155
0.062493365 -0.0061752666 0.10240714 4290320913
0.062823251 -0.0054293866 0.10268395 4289070080
0.063703395 -0.0051749842 0.10365991 4289728008
0.064032681 -0.0044304603 0.10393622 4289991178
0.064361967 -0.0036859363 0.10421252 4289728006
0.064691246 -0.0029414122 0.10448882 4288806912
0.065568395 -0.0026937909 0.10546227 4290122251
0.065897077 -0.0019506229 0.10573807 4289859079
0.066225767 -0.0012074549 0.10601386 4289859079
0.066554449 -0.000464287 0.10628966 4290188044
0.066883132 0.00027888094 0.10656547 4288741376
0.067211822 0.0010220489 0.10684127 4289793034
0.068084769 0.0012601773 0.10781118 4289332485
0.068412855 0.0020019894 0.10808648 4289332485
0.068740942 0.0027438011 0.10836178 4289200647
0.06906902 0.0034856133 0.10863707 4289266440
0.069397107 0.0042274245 0.10891237 4289200908
0.069725193 0.0049692364 0.10918767 4289464080
0.070053279 0.0057110484 0.10946296 4289530377
0.070381366 0.0064528608 0.10973826 4289201412
0.070169985 0.0077105612 0.10932346 4289463042
0.070498675 0.0084537286 0.10959926 4289528835
0.070827357 0.0091968961 0.10987506 4289528835
0.071156047 0.0099400645 0.11015086 4289594628
0.07148473 0.010683232 0.11042666 4290184966
0.071813412 0.0114264 0.11070246 4290777103
0.071606234 0.012693593 0.11029118 4291102997
0.07193552 0.013438118 0.11056749 4290774032
0.072264805 0.014182642 0.11084379 4291364623
0.072594091 0.014927166 0.1111201 4291430416
0.072389908 0.01620114 0.11071134 4291825412
0.072719797 0.01694702 0.11098814 4293601823
0.073049679 0.017692901 0.11126494 4293798425
0.072847903 0.018972298 0.1108582 4292022016
0.073178388 0.019719535 0.11113551 4292347145
0.07297837 0.021003034 0.11073024 4293202454
0.073309451 0.021751627 0.11100805 4293136661
0.07364054 0.022500217 0.11128586 4293136661
0.073442958 0.023789112 0.11088264 4293597212
0.073774643 0.024539059 0.11116096 4293405714
0.073578849 0.025832016 0.11075924 4294524195
0.073911138 0.026583323 0.11103807 4292422410
0.074243419 0.027334627 0.11131688 4293804063
0.074575707 0.028085932 0.11159571 4293479463
0.074382924 0.029385673 0.1111965 4293808428
0.074715808 0.030138334 0.11147583 4292634430
0.075048685 0.030890994 0.11175516 4291121191
0.07538157 0.031643655 0.11203448 4286126594
0.075714454 0.032396317 0.1123138 4286389766
-0.20606963 -0.15877755 -0.18705086 4285810228
-0.20487921 -0.1578193 -0.1858125 4285877566
-0.20439218 -0.15671811 -0.18540384 4285811773
-0.20320354 -0.15576394 -0.18416698 4285418298
-0.20271713 -0.15466411 -0.18375883 4285418298
-0.20293108 -0.15341453 -0.18417783 4285485627
-0.20244405 -0.15231334 -0.18376917 4285090869
-0.20195702 -0.15121216 -0.1833605 4285614383
-0.2021686 -0.14995718 -0.18377751 4285614383
-0.20168096 -0.14885461 -0.18336834 4285482797
-0.20119333 -0.14775209 -0.18295917 4286138414
-0.20070571 -0.14664952 -0.18255 4286138414
-0.20091426 -0.14538774 -0.18296447 4286598711
-0.20042606 -0.14428386 -0.18255481 4285414437
-0.19993782 -0.14317995 -0.18214515 4285941812
-0.19944958 -0.14207603 -0.18173546 4286204984
-0.19896135 -0.14097214 -0.18132579 4285678904
-0.19847313 -0.13986823 -0.18091612 4285613111
-0.1979849 -0.13876435 -0.18050645 4285809211
-0.19818871 -0.1374917 -0.18091695 4285611832
-0.19769987 -0.13638645 -0.18050678 4285547570
-0.19790186 -0.13510977 -0.18091574 4285415984
-0.19741242 -0.13400313 -0.18050505 4285417771
-0.19692299 -0.13289653 -0.18009438 4284957220
-0.19643356 -0.13178991 -0.17968369 4285352998
-0.19594413 -0.13068327 -0.17927301 4286142514
-0.19614251 -0.12939847 -0.17967895 4285550123
-0.19565248 -0.12829052 -0.17926776 4285944881
-0.19516245 -0.12718251 -0.17885657 4285547572
-0.19535843 -0.12589228 -0.17926049 4285087021
-0.19555326 -0.12459931 -0.17966345 4284033565
-0.19506203 -0.12348862 -0.17925125 4283901979
-0.19457079 -0.12237793 -0.17883906 4282520580
-0.19407956 -0.12126724 -0.17842688 4282520580
-0.19427134 -0.11996751 -0.17882727 4282257408
-0.19377951 -0.11885545 -0.17841457 4281930240
-0.19260588 -0.1179352 -0.1771903 4281469696
-0.19211465 -0.11682451 -0.17677811 4281403648
-0.19162342 -0.11571382 -0.17636593 4284101157
-0.19113219 -0.11460313 -0.17595373 4284632114
-0.18996151 -0.11368967 -0.17473194 4284303149
-0.18879208 -0.11277891 -0.17351119 4285026091
-0.18830204 -0.11167093 -0.17310001 4285486642
-0.18713441 -0.11076423 -0.17188077 4283708698
-0.18664499 -0.10965762 -0.17147009 4284169249
-0.18615554 -0.10855098 -0.1710594 4284235558
-0.18431446 -0.10785505 -0.16903558 4284630316
-0.18315104 -0.10695787 -0.16781989 4285089572
-0.1112938 -0.1212911 -0.083097778 4288307784
-0.10952652 -0.12076195 -0.081135914 4292847501
-0.10776161 -0.12023825 -0.079176024 4294752916
-0.10733756 -0.11927946 -0.078820199 4294292365
-0.10624489 -0.11854226 -0.077663869 4294554247
-0.10582144 -0.11758483 -0.07730855 4294554247
-0.10473058 -0.11685172 -0.07615374 4294750084
-0.10430772 -0.11589561 -0.075798914 4294947463
-0.10321866 -0.11516657 -0.074645609 4294947722
-0.10279641 -0.11421185 -0.074291304 4294815879
-0.10170911 -0.1134869 -0.073139459 4294948240
-0.10128745 -0.11253351 -0.072785638 4294882190
-0.1008658 -0.11158014 -0.072431833 4294424199
-0.10044415 -0.11062679 -0.072078034 4294292613
-0.10002249 -0.1096734 -0.071724214 4292848494
-0.099600844 -0.10872003 -0.071370408 4293769596
-0.099840641 -0.10752877 -0.071811117 4293375615
-0.099418387 -0.10657404 -0.071456805 4293375615
-0.099656351 -0.10537872 -0.07189595 4293045369
-0.099233501 -0.10442264 -0.071541138 4293045369
-0.099469654 -0.10322323 -0.07197877 4291006049
-0.099704616 -0.10202114 -0.072415404 4291137635
-0.099280566 -0.10106234 -0.072059579 4290677348
-0.099513732 -0.09985619 -0.072494708 4290545762
-0.099745736 -0.098647282 -0.072928853 4290546782
-0.099976502 -0.09743569 -0.07336197 4290415196
-0.10020606 -0.09622138 -0.073794067 4290678116
-0.10043443 -0.095004357 -0.074225157 4290349151
-0.10066163 -0.093784608 -0.074655294 4290349151
-0.1008876 -0.092562176 -0.075084381 4290544994
-0.10111235 -0.091337003 -0.075512454 4290479201
-0.10198834 -0.089850917 -0.076726437 4290215770
-0.10286196 -0.088359393 -0.077938467 4290084184
-0.10308193 -0.087123387 -0.078362517 4290609745
-0.10330069 -0.08588466 -0.078785554 4289820229
-0.1035183 -0.084643222 -0.079207636 4290016322
-0.10373467 -0.083399087 -0.079628669 4289687357
-0.10394983 -0.082152218 -0.080048688 4290013744
-0.10416381 -0.080902658 -0.080467694 4290276916
-0.10372896 -0.079919457 -0.080102816 4289158428
-0.10329411 -0.078936242 -0.079737931 4290145323
-0.10285927 -0.077953041 -0.079373054 4289289258
-0.10307024 -0.076696694 -0.079789557 4286854917
-0.10263479 -0.075712122 -0.079424165 4285998861
-0.10219934 -0.074727565 -0.079058781 4287051549
-0.1017639 -0.073743008 -0.078693397 4287382319
-0.10132845 -0.072758451 -0.078328021 4285605908
-0.023939926 -0.09538579 0.01390909 4287585593
-0.01287226 -0.094628766 0.026548648 4294756780
-0.011248298 -0.094423756 0.028390273 4294954159
-0.0096267797 -0.09422417 0.030229839 4294824885
-0.0086390777 -0.093724303 0.031298093 4294956471
-0.008283399 -0.092920102 0.031596541 4294826168
-0.007927726 -0.092115909 0.031894989 4294826168
-0.0075720479 -0.091311708 0.032193437 4294497203
-0.0072163749 -0.090507522 0.032491881 4294958525
-0.0074891248 -0.089390859 0.032023545 4294301609
-0.0071328469 -0.08858531 0.032322496 4294962623
-0.006776575 -0.087779768 0.032621443 4294696113
-0.0064202971 -0.086974211 0.032920398 4294827699
-0.0060640224 -0.086168662 0.033219345 4294827699
-0.0057077445 -0.085363105 0.033518299 4293907111
-0.0053514694 -0.084557556 0.03381725 4294499248
-0.0049951947 -0.083752006 0.034116201 4294959801
-0.0046389168 -0.08294645 0.034415152 4294828215
-0.0049056681 -0.081816226 0.033951845 4294894778
-0.0045487937 -0.081009321 0.034251299 4294964169
-0.0048137442 -0.07987503 0.033789504 4294959289
-0.004456271 -0.079066768 0.034089461 4294696117
-0.0047194208 -0.077928402 0.033629179 4294959285
-0.004361345 -0.077118784 0.033929639 4294827699
-0.0046227402 -0.075976342 0.033470817 4294433697
-0.0042640623 -0.075165354 0.033771783 4294962354
-0.0039053904 -0.074354388 0.034072746 4294433957
-0.0041643423 -0.073206529 0.033615984 4294302371
-0.0038050681 -0.0723942 0.033917453 4294367914
-0.0034457939 -0.07158187 0.034218919 4294696879
-0.0037023488 -0.070428587 0.033764169 4294960308
-0.0033424753 -0.069614902 0.034066137 4294630572
-0.002982599 -0.068801209 0.034368109 4294958763
-0.0032367536 -0.06764251 0.033915374 4294365084
-0.002876281 -0.066827469 0.034217846 4290484582
-0.0031286755 -0.065664671 0.033766579 4290155617
-0.0033798339 -0.064499192 0.033316359 4290155617
-0.0030181597 -0.063681439 0.03361984 4291805850
-0.0032675145 -0.062511876 0.033171128 4289174130
-0.0035156736 -0.061339617 0.032723427 4286873690
-0.0037626312 -0.060164638 0.032276727 4286413139
-0.0033991591 -0.059342816 0.032581717 4290222707
-0.0036443518 -0.058163747 0.032136481 4293183392
-0.0038883074 -0.056981981 0.031692304 4294956199
-0.0035236366 -0.056157451 0.031998299 4294956199
-0.0037657972 -0.054971624 0.031555627 4294626981
-0.0034005216 -0.054145727 0.031862132 4294824360
-0.0036408843 -0.052955836 0.031420968 4294954412
-0.0038800426 -0.051763222 0.030980816 4294954155
-0.0035135741 -0.050934628 0.031288318 4294953893
-0.0037509722 -0.049737927 0.030849634 4294954921
-0.0033838989 -0.048907962 0.031157646 4294958766
-0.0030168283 -0.048078004 0.031465653 4294954911
-0.0032517889 -0.046875898 0.031029025 4294954657
-0.0028841218 -0.046044592 0.031337533 4294888350
-0.0031172815 -0.044838417 0.030902416 4294887082
-0.003349243 -0.043629531 0.030468302 4294955188
-0.003580044 -0.042417925 0.030035142 4294955188
-0.0032105707 -0.041582532 0.030345168 4293832613
-0.0034395384 -0.040366881 0.029913565 4291661444
-0.0036673017 -0.039148502 0.029482976 4291991175
-0.0038938636 -0.037927408 0.029053392 4292583312
-0.0035225952 -0.037087958 0.029364923 4292189306
-0.0037473622 -0.035862807 0.028936848 4293570959
-0.0039709681 -0.034634922 0.028509736 4294956718
-0.0035984956 -0.033792749 0.028822277 4294954919
-0.0038202605 -0.032560807 0.02839672 4294955943
-0.0034471941 -0.031717293 0.02870976 4294889122
-0.0036671611 -0.030481288 0.02828571 4294954661
-0.0032934898 -0.029636405 0.028599259 4294888868
-0.0035116589 -0.028396336 0.028176717 4294953893
-0.0037286296 -0.027153555 0.027755182 4294888100
-0.0033537569 -0.026305957 0.028069738 4294951844
-0.0035689643 -0.025059082 0.027649675 4293833363
-0.0037829357 -0.023809521 0.027230656 4293174918
-0.0034068672 -0.022959217 0.027546214 4292780160
-0.0036190348 -0.021705579 0.027128709 4293769119
-0.0038300068 -0.020449236 0.026712209 4293769119
-0.0040398105 -0.019190153 0.02629667 4292255880
-0.0042483825 -0.017928382 0.025882183 4294690221
-0.0044557559 -0.016663903 0.0254687 4292321673
-0.0046619279 -0.015396708 0.025056226 4294821030
-0.0048669013 -0.014126802 0.024644759 4293307791
-0.005070711 -0.012854156 0.024234258 4294621078
-0.0052732844 -0.011578823 0.023824804 4294226320
-0.0054746605 -0.010300784 0.023416355 4294953126
-0.005674833 -0.009020023 0.023008917 4294950813
-0.0058738403 -0.0077365306 0.022602435 4294819995
-0.0066526588 -0.0060307486 0.021469979 4294622616
-0.006268193 -0.0051614596 0.021792583 4294886042
-0.0064635682 -0.0038698511 0.02138917 4294491284
-0.0066577457 -0.0025755358 0.020986762 4294753682
-0.00685076 -0.0012784806 0.020585319 4294556303
-0.0064644949 -0.00040512357 0.020909434 4294753164
-0.0060782302 0.00046823351 0.021233547 4294884750
-0.0062688063 0.0017706917 0.020834161 4294884498
0.034581568 -0.020268358 0.070917211 4290873963
0.034928847 -0.019483147 0.071208619 4291136881
0.035847008 -0.019140624 0.07221853 4290807916
0.036193687 -0.01835677 0.072509423 4291005286
0.036540367 -0.017572917 0.072800323 4291071079
0.037456091 -0.017235791 0.073808186 4291005538
0.038370617 -0.016901378 0.074815035 4291663468
0.039283942 -0.016569678 0.075820886 4291137385
0.040196106 -0.016240712 0.07682576 4291334764
0.041107032 -0.015914436 0.077829592 4290478690
0.04201676 -0.015590872 0.078832425 4291070827
0.043490734 -0.015724882 0.080548182 4292054647
0.044397492 -0.015408124 0.081548542 4289291341
0.045867272 -0.015551628 0.083260775 4290200123
0.046771001 -0.015241623 0.084258571 4287568403
0.047673564 -0.01493436 0.085255399 4289600797
0.048574895 -0.014629781 0.086251177 4289666590
0.049475025 -0.014327914 0.087245949 4289732374
0.050373957 -0.014028761 0.088239722 4289732374
0.051271688 -0.013732317 0.089232482 4289995030
0.05216825 -0.013438616 0.090224281 4289797651
0.053063583 -0.013147597 0.091215029 4290259229
0.053957716 -0.012859292 0.092204772 4289930264
0.054292399 -0.012102563 0.092485599 4289207057
0.055184733 -0.011818326 0.093473829 4289141264
0.055518817 -0.011062953 0.093754165 4290388512
0.056409352 -0.010782784 0.094740883 4289730582
0.05729872 -0.010505356 0.095726639 4289663760
0.057631604 -0.0097526954 0.096005961 4289663760
0.05851914 -0.0094793076 0.096990168 4289337870
0.058851425 -0.0087280022 0.097268984 4290390558
0.059737161 -0.0084586833 0.098251678 4288677635
0.060621697 -0.0081920754 0.099233367 4289730323
0.060952783 -0.007443483 0.099511184 4289664528
0.061283864 -0.0066948901 0.099788994 4288809219
0.062166031 -0.006433737 0.10076872 4289466631
0.062496517 -0.0056865006 0.10104603 4289861389
0.063376859 -0.0054293866 0.10202419 4290124306
0.063706741 -0.0046835062 0.10230099 4289203204
0.064036623 -0.0039376258 0.10257781 4289334018
0.064914569 -0.0036859363 0.10355395 4289597190
0.065243855 -0.0029414122 0.10383026 4289333248
0.065573141 -0.002196888 0.10410655 4289662213
0.065902427 -0.0014523641 0.10438286 4289662213
0.066777363 -0.0012074549 0.10535649 4289201152
0.067106046 -0.000464287 0.1056323 4289135360
0.067434736 0.00027888094 0.1059081 4289069312
0.067763418 0.0010220489 0.10618389 4289661448
0.068092108 0.0017652168 0.10645969 4290188307
0.06842079 0.0025083849 0.10673549 4289727756
0.068749472 0.0032515528 0.1070113 4289266953
0.069078162 0.003994721 0.10728709 4289266953
0.069406845 0.0047378885 0.10756289 4289004553
0.069735534 0.0054810569 0.10783869 4288544770
0.070064217 0.0062242243 0.1081145 4289597967
0.070392899 0.0069673932 0.10839029 4288940037
0.070721589 0.0077105612 0.10866609 4289069826
0.071050271 0.0084537286 0.10894189 4289135619
0.071378961 0.0091968961 0.10921769 4289528835
0.071170986 0.010460021 0.1088037 4289594628
0.071500272 0.011204545 0.10908001 4290184966
0.071829557 0.01194907 0.10935631 4290777103
0.072158843 0.012693593 0.10963262 4291102997
0.072488129 0.013438118 0.10990892 4290774032
0.072283745 0.014709379 0.10949796 4291364623
0.072613634 0.015455259 0.10977477 4291430416
0.072943516 0.01620114 0.11005157 4291825412
0.072741546 0.017477827 0.10964262 4293601823
0.073072031 0.018225063 0.10991993 4293798425
0.072871819 0.019505847 0.10951245 4292022016
0.073202908 0.020254441 0.10979026 4292347145
0.073533989 0.021003034 0.11006807 4293202454
0.073336214 0.022289213 0.10966264 4293202454
0.073667899 0.02303916 0.10994096 4293136661
0.073471926 0.024329409 0.10953704 4293597212
0.073804207 0.025080713 0.10981586 4293405714
0.074136488 0.025832016 0.11009468 4294524195
0.074468777 0.026583323 0.1103735 4292422410
0.074801058 0.027334627 0.11065232 4293804063
0.074608684 0.028633013 0.11025142 4293479463
0.074941568 0.029385673 0.11053074 4293808428
0.075274453 0.030138334 0.11081006 4292634430
0.07560733 0.030890994 0.11108939 4291121191
0.075940214 0.031643655 0.11136871 4286126594
0.076273099 0.032396317 0.11164803 4286389766
0.076084889 0.033704229 0.11125062 4285080339
-0.20336008 -0.1579636 -0.18595618 4285549625
-0.20217246 -0.15700944 -0.18471813 4285483832
-0.20238721 -0.15576394 -0.18513985 4285155894
-0.2012008 -0.15481248 -0.1839028 4285090101
-0.20141436 -0.15356426 -0.18432352 4284959281
-0.20022912 -0.15261552 -0.18308748 4285090867
-0.20044151 -0.15136462 -0.1835072 4285484080
-0.20065267 -0.15011099 -0.18392591 4285484080
-0.20016563 -0.14900976 -0.18351723 4285352494
-0.1996786 -0.14790858 -0.18310857 4285744426
-0.19919157 -0.14680742 -0.1826999 4285876012
-0.19870454 -0.14570619 -0.18229122 4286401586
-0.1989121 -0.14444444 -0.18270692 4286072621
-0.19842449 -0.1433419 -0.18229775 4285876273
-0.19793685 -0.14223935 -0.18188858 4285678894
-0.19744921 -0.14113678 -0.18147941 4285679158
-0.19696158 -0.14003424 -0.18107024 4285810744
-0.19647396 -0.13893172 -0.18066107 4285875004
-0.19598633 -0.13782915 -0.1802519 4285611832
-0.19618909 -0.13655652 -0.18066356 4286072635
-0.19570087 -0.13545263 -0.18025388 4285941049
-0.19521263 -0.13434872 -0.17984422 4285285166
-0.19472441 -0.13324483 -0.17943454 4285679924
-0.19423617 -0.13214092 -0.17902486 4285022748
-0.19374795 -0.13103703 -0.1786152 4285285920
-0.19394656 -0.12975489 -0.17902337 4285418021
-0.19414392 -0.12847008 -0.17943051 4284891677
-0.19365449 -0.12736344 -0.17901982 4284363044
-0.19316506 -0.12625684 -0.17860915 4284428837
-0.19336003 -0.12496658 -0.17901427 4282717959
-0.19287001 -0.12385862 -0.17860308 4282915338
-0.19237997 -0.12275065 -0.1781919 4282520580
-0.19257255 -0.12145497 -0.17859499 4282060032
-0.19208191 -0.12034564 -0.17818332 4282060032
-0.19159128 -0.1192363 -0.17777163 4282784782
-0.19110066 -0.11812698 -0.17735994 4284955951
-0.18992983 -0.1172108 -0.17613599 4284892470
-0.18943979 -0.1161028 -0.17572479 4284760884
-0.18894976 -0.11499485 -0.17531361 4283778600
-0.18845974 -0.11388686 -0.17490242 4283515428
-0.18729192 -0.11297747 -0.17368099 4284433954
-0.18680248 -0.11187084 -0.1732703 4283973403
-0.18563646 -0.1109655 -0.17205037 4284366114
-0.18514761 -0.10986023 -0.1716402 4284366114
-0.18398334 -0.10895895 -0.17042172 4284234276
-0.18282032 -0.1080604 -0.16920431 4285879101
-0.18165849 -0.10716453 -0.1679879 4284957216
-0.11234581 -0.12182564 -0.085917018 4285152300
-0.1083876 -0.11980044 -0.081629597 4294554760
-0.10796236 -0.11883894 -0.081272773 4294357381
-0.10620185 -0.11832065 -0.079312481 4294815872
-0.1051108 -0.11758483 -0.078155465 4294750079
-0.10468735 -0.1166274 -0.077800147 4294948484
-0.10426389 -0.11566994 -0.077444822 4294947713
-0.10317525 -0.11493954 -0.076289803 4294947465
-0.10275239 -0.11398346 -0.075934991 4294881672
-0.10232954 -0.11302739 -0.07558018 4294947472
-0.10124328 -0.11230239 -0.074427173 4294947215
-0.10082103 -0.11134767 -0.074072868 4294423422
-0.10039878 -0.11039295 -0.073718555 4294686594
-0.099976525 -0.10943822 -0.073364243 4294953614
-0.099554271 -0.10848349 -0.073009931 4293438576
-0.099792428 -0.10729089 -0.073451281 4293309056
-0.099369571 -0.1063348 -0.073096469 4291861610
-0.099605918 -0.10513812 -0.073536322 4291663464
-0.099182464 -0.10418068 -0.073181003 4291202913
-0.099417023 -0.10297994 -0.073619336 4290741594
-0.099650376 -0.10177647 -0.074056655 4291267938
-0.099882573 -0.1005703 -0.074493036 4291006063
-0.099457324 -0.099608786 -0.074136205 4290742891
-0.099687673 -0.098398544 -0.074571006 4290546280
-0.099916838 -0.097185597 -0.075004816 4290348901
-0.099490382 -0.09622138 -0.07464698 4290414946
-0.10037158 -0.094751537 -0.075869448 4290414946
-0.10059714 -0.093530454 -0.076300234 4290349153
-0.10082151 -0.092306666 -0.076730013 4290413922
-0.10104466 -0.091080137 -0.077158779 4290874473
-0.10191807 -0.08959268 -0.078374706 4289885520
-0.10213824 -0.088359393 -0.078800969 4290609243
-0.10300741 -0.08686246 -0.080013327 4290805577
-0.10322461 -0.085622355 -0.080437109 4289226545
-0.10344056 -0.084379561 -0.08085984 4289883696
-0.10300692 -0.083399087 -0.080495968 4289883696
-0.10322107 -0.082152218 -0.08091718 4290211873
-0.10343404 -0.080902658 -0.0813374 4289751322
-0.1029992 -0.079919457 -0.080972522 4290210598
-0.10256434 -0.078936242 -0.080607638 4290539563
-0.1021295 -0.077953041 -0.08024276 4288367138
-0.10169465 -0.07696984 -0.079877876 4286327555
-0.1012598 -0.075986624 -0.079512991 4286528030
-0.10082495 -0.075003415 -0.079148114 4286133272
-0.10103312 -0.073743008 -0.079564303 4285146902
-0.012354226 -0.096549645 0.026002429 4294955435
-0.010730512 -0.096340545 0.027847921 4294954407
-0.0097414292 -0.095835268 0.028919388 4294757543
-0.0087535344 -0.09533269 0.029989848 4294823336
-0.0077668028 -0.094832845 0.03105934 4294958521
-0.006781315 -0.094335705 0.03212779 4294957750
-0.0064268354 -0.093534209 0.032425232 4294958263
-0.0067015765 -0.092424341 0.031953171 4294959548
-0.0063464972 -0.091621496 0.03225112 4294959800
-0.0066194804 -0.090507522 0.03178053 4294959029
-0.0062638018 -0.089703321 0.032078981 4294962881
-0.0059081293 -0.088899136 0.032377426 4294366889
-0.0055524507 -0.088094935 0.032675877 4294964684
-0.0051967781 -0.087290749 0.032974321 4294960058
-0.0048411023 -0.086486556 0.033272769 4294963144
-0.0044854237 -0.085682355 0.033571217 4294963144
-0.0041297483 -0.084878162 0.033869665 4294960317
-0.0043972945 -0.083752006 0.03340365 4294960569
-0.0040410166 -0.08294645 0.033702601 4294960826
-0.0036847417 -0.0821409 0.034001552 4294962107
-0.0033284668 -0.081335351 0.034300502 4294500785
-0.0035930059 -0.080202416 0.033837002 4294828215
-0.0032361317 -0.07939551 0.034136456 4294894008
-0.0034988781 -0.078258507 0.033674467 4294959799
-0.0031414016 -0.077450238 0.033974424 4294827699
-0.00340235 -0.076309167 0.033513945 4294959535
-0.0030442744 -0.07549955 0.033814408 4294696106
-0.0026862016 -0.074689932 0.034114867 4294696102
-0.0029447875 -0.073543414 0.033656359 4294959788
-0.0025861098 -0.072732434 0.033957325 4294960044
-0.0022274377 -0.07192146 0.034258287 4294959787
-0.0024835784 -0.070769534 0.033801835 4294960048
-0.002124307 -0.069957204 0.034103297 4294630826
-0.0017650301 -0.069144867 0.034404766 4294761125
-0.0020187784 -0.067987517 0.033950329 4294958761
-0.0016589077 -0.067173839 0.034252297 4294234522
-0.0019108554 -0.06601242 0.033799373 4291010665
-0.002161643 -0.064848274 0.033347398 4289632369
-0.0018005681 -0.064031877 0.033650376 4289632369
-0.0020495164 -0.06286367 0.033199966 4291803538
-0.002297272 -0.061692771 0.032750558 4287003479
-0.0025438203 -0.06051914 0.032302164 4287135065
-0.0021809505 -0.059698682 0.032606646 4288445780
-0.0024257009 -0.058520988 0.032159761 4289893226
-0.0026692885 -0.057340566 0.031713828 4294296983
-0.0023052173 -0.056517389 0.032019321 4294956198
-0.0025469684 -0.05533291 0.03157495 4294955945
-0.0027875211 -0.054145727 0.031131586 4294889381
-0.0024222513 -0.053319838 0.031438082 4294956724
-0.0026610033 -0.052128583 0.030996229 4293901723
-0.0022951339 -0.051301338 0.031303231 4292651408
-0.0025320833 -0.050106015 0.030862879 4292454029
-0.0027678765 -0.048907962 0.030423498 4292716431
-0.0024008059 -0.048078004 0.030731507 4293637533
-0.0020337324 -0.047248039 0.031039519 4294953899
-0.0022670936 -0.046044592 0.030602189 4294954413
-0.0018994181 -0.045213263 0.030910704 4294953385
-0.0021309708 -0.04400574 0.030474883 4294228891
-0.00236133 -0.042795505 0.03004007 4294228891
-0.0025905254 -0.041582532 0.029606227 4290806637
-0.0022210577 -0.040747155 0.029916245 4289819742
-0.0024484147 -0.039530132 0.029483953 4289623394
-0.0026745682 -0.038310401 0.029052662 4290083945
-0.002899528 -0.037087958 0.028622381 4289756514
-0.0025282567 -0.036248501 0.028933914 4290743409
-0.0027514186 -0.035021994 0.028505143 4294756000
-0.0029734122 -0.033792749 0.028077332 4294954407
-0.0026009423 -0.032950584 0.028389871 4294559133
-0.0028211048 -0.031717293 0.027963616 4294888098
-0.0024480328 -0.030873766 0.02827666 4294756512
-0.0020749636 -0.030030245 0.028589701 4294756512
-0.0022927264 -0.02879153 0.02816546 4294755746
-0.0025092906 -0.027550105 0.027742224 4294755746
-0.0027246505 -0.026305957 0.027319999 4294886049
-0.0023497834 -0.025458371 0.02763455 4294952870
-0.0025633783 -0.024210135 0.027213786 4292845437
-0.0027757445 -0.022959217 0.026794072 4294953126
-0.0029869066 -0.021705579 0.02637537 4294955448
-0.002610239 -0.02085392 0.026691431 4294162848
-0.0028196059 -0.019596223 0.026274234 4294162848
-0.0030278042 -0.018335784 0.025857998 4293111439
-0.0038196046 -0.016663903 0.024710564 4292716681
-0.003440537 -0.01580682 0.02502864 4294821028
-0.0036450992 -0.014538269 0.024615465 4291268206
-0.0044315378 -0.012854156 0.023472521 4292845185
-0.0046331054 -0.011578823 0.023061868 4294951075
-0.0048334715 -0.010300784 0.022652214 4294951836
-0.0050326376 -0.009020023 0.022243578 4294951065
-0.0052306447 -0.0077365306 0.021835903 4294951063
-0.0048473789 -0.006869955 0.022157501 4294556305
-0.0056229811 -0.0051614596 0.02102365 4294951322
-0.00581735 -0.0038698511 0.020619038 4294951065
-0.0054322854 -0.0029992072 0.020942146 4294951311
-0.0056248568 -0.0017035337 0.020539042 4294950797
-0.0052391924 -0.00083153479 0.020862652 4294620801
-0.0050437297 0.0013415938 0.020785129 4294884745
0.035858929 -0.01869794 0.07080546 4290742387
0.036206208 -0.017912731 0.07109686 4290873961
0.037122164 -0.017572917 0.072106965 4290939754
0.038036883 -0.017235791 0.073116019 4291597934
0.038950399 -0.016901378 0.074124075 4291400555
0.039295878 -0.016120238 0.07441397 4291992954
0.040773876 -0.016240712 0.0761372 4291071852
0.041683797 -0.015914436 0.077142231 4291071340
0.042592514 -0.015590872 0.078146264 4291531891
0.043500036 -0.01527002 0.079149283 4291727737
0.044970233 -0.015408124 0.080865979 4290740842
0.046437997 -0.015551628 0.082580611 4290998626
0.047340721 -0.015241623 0.083579607 4289024836
0.048242275 -0.01493436 0.084577635 4289015588
0.049142599 -0.014629781 0.085574612 4288357658
0.050041724 -0.014327914 0.086570583 4288684308
0.050939649 -0.014028761 0.087565549 4288881687
0.051836375 -0.013732317 0.088559508 4288617748
0.052731935 -0.013438616 0.089552507 4288420369
0.053067815 -0.012679174 0.089834347 4289009678
0.053961542 -0.012389513 0.090825789 4289930264
0.054854073 -0.012102563 0.091816232 4289207057
0.055188753 -0.011345834 0.092097059 4289141264
0.056079477 -0.011062953 0.093085997 4290388512
0.056413561 -0.010307579 0.093366325 4289730582
0.05730249 -0.010028766 0.094353743 4289663760
0.058190253 -0.0097526954 0.095340192 4289663760
0.058523137 -0.0090000341 0.095619515 4289337870
0.059409067 -0.0087280022 0.096604414 4290390558
0.059741352 -0.0079766978 0.09688323 4288677635
0.060625479 -0.0077087344 0.097866625 4289730323
0.06095716 -0.0069587855 0.098144941 4289664528
0.061839491 -0.0066948901 0.099126823 4288809219
0.062170576 -0.0059462981 0.09940464 4289466631
0.063051142 -0.0056865006 0.10038505 4289861389
0.063381627 -0.0049392646 0.10066236 4290124306
0.063712113 -0.0041920277 0.10093967 4289203204
0.064590238 -0.0039376258 0.10191803 4289334018
0.064920127 -0.0031917458 0.10219484 4289597190
0.065250009 -0.0024458657 0.10247164 4289333248
0.066125743 -0.002196888 0.10344799 4289662213
0.066455029 -0.0014523641 0.10372429 4289662213
0.066784315 -0.00070783996 0.10400059 4289201152
0.067113601 3.6684109e-05 0.1042769 4289135360
0.067442887 0.00078120822 0.1045532 4289069312
0.067772172 0.0015257322 0.10482951 4289661448
0.068101451 0.0022702564 0.1051058 4290188307
0.068430737 0.0030147803 0.10538211 4289727756
0.068760023 0.0037593045 0.10565841 4289266953
0.069089308 0.0045038289 0.10593472 4289266953
0.069418594 0.0052483524 0.10621101 4289004553
0.06974788 0.0059928768 0.10648732 4288544770
0.070077166 0.0067374008 0.10676362 4289597967
0.070406452 0.0074819257 0.10703993 4288940037
0.070735738 0.0082264496 0.10731623 4289069826
0.071065024 0.0089709731 0.10759253 4289135619
0.071394302 0.0097154966 0.10786884 4288675840
0.071723588 0.010460021 0.10814514 4289399561
0.071517825 0.011725858 0.10773096 4289596422
0.071847707 0.012471738 0.10800777 4289201664
0.072177596 0.013217619 0.10828458 4289594380
0.072507478 0.013963498 0.10856138 4289528587
0.072304718 0.015236118 0.10814971 4290908948
0.072635196 0.015983352 0.10842703 4290777362
0.072965682 0.016730588 0.10870434 4290776320
0.072765283 0.018008664 0.10829465 4289986816
0.073096365 0.018757256 0.10857246 4291301888
0.073427446 0.019505847 0.10885028 4291696640
0.073229477 0.020789316 0.10844264 4292548885
0.073561162 0.021539263 0.10872096 4292219920
0.073364995 0.022826798 0.10831483 4292219920
0.073697284 0.023578104 0.10859365 4292681246
0.074029565 0.024329409 0.10887247 4293076004
0.073835798 0.025622368 0.10846835 4292227602
0.074168675 0.026375029 0.10874768 4292885532
0.074501559 0.027127691 0.109027 4293085725
0.074834444 0.02788035 0.10930632 4293283104
0.075167328 0.028633013 0.10958565 4292497697
0.075500213 0.029385673 0.10986497 4293550385
0.075833097 0.030138334 0.11014429 4291585335
0.076165982 0.030890994 0.11042362 4291058991
0.076498866 0.031643655 0.11070294 4286590223
0.076311059 0.032950211 0.11030382 4287445532
-0.20135714 -0.15700944 -0.18568978 4285352244
-0.20087132 -0.15591095 -0.18528211 4285418548
-0.20038548 -0.15481248 -0.18487446 4285286962
-0.19920121 -0.15386373 -0.18363716 4285287216
-0.19941382 -0.15261552 -0.18405913 4285418802
-0.198928 -0.15151706 -0.18365148 4285550127
-0.19844216 -0.15041858 -0.18324383 4285418541
-0.19795634 -0.1493201 -0.18283616 4285418541
-0.1974705 -0.14822161 -0.18242849 4285941805
-0.19767946 -0.14696528 -0.1828474 4285810219
-0.19719303 -0.14586543 -0.18243922 4285941033
-0.19670659 -0.1447656 -0.18203107 4286006826
-0.19622017 -0.14366578 -0.18162291 4286139697
-0.19573374 -0.14256594 -0.18121473 4285679146
-0.19593908 -0.14130144 -0.18163063 4285481261
-0.19545206 -0.14020027 -0.18122196 4285678640
-0.19496503 -0.13909908 -0.1808133 4285875256
-0.19447799 -0.13799787 -0.18040462 4285612084
-0.19399098 -0.1368967 -0.17999597 4285547058
-0.19419272 -0.13562407 -0.18040882 4285415472
-0.1937051 -0.1345215 -0.17999965 4285087017
-0.19321747 -0.13341898 -0.17959048 4284823845
-0.19272985 -0.13231644 -0.17918131 4285547556
-0.19224221 -0.13121386 -0.17877214 4285350177
-0.19244038 -0.12993312 -0.17918198 4285679660
-0.19195214 -0.12882923 -0.1787723 4283245319
-0.1914639 -0.12772529 -0.17836262 4283310358
-0.1916597 -0.12643911 -0.1787705 4282586635
-0.19117089 -0.12533386 -0.17836033 4281468416
-0.19136485 -0.12404361 -0.17876664 4282586885
-0.19087541 -0.12293697 -0.17835596 4284100892
-0.19106758 -0.12164266 -0.17876077 4285219373
-0.19057755 -0.12053471 -0.17834958 4285219373
-0.19008751 -0.1194267 -0.17793839 4285943098
-0.18959749 -0.11831875 -0.17752722 4285548340
-0.18842827 -0.11740392 -0.17630257 4284630066
-0.18793884 -0.11629728 -0.17589188 4284498480
-0.18744941 -0.11519067 -0.1754812 4283974954
-0.18695998 -0.11408409 -0.17507052 4284106540
-0.18579376 -0.11317601 -0.17384839 4284499236
-0.1846287 -0.11227068 -0.17262721 4284499236
-0.18414047 -0.11116678 -0.17221753 4284826150
-0.18365224 -0.11006287 -0.17180786 4284694564
-0.183164 -0.10895895 -0.17139818 4284693544
-0.18200198 -0.1080604 -0.17017956 4284167200
-0.18084115 -0.10716453 -0.16896196 4284561947
-0.11229774 -0.12161081 -0.087577723 4285744949
-0.10834175 -0.11958155 -0.083284006 4294947713
-0.10724871 -0.11883894 -0.082123272 4294750077
-0.10615682 -0.11809905 -0.080963485 4294880893
-0.10506617 -0.11736187 -0.079804756 4294551928
-0.10464212 -0.11640307 -0.079448938 4294617975
-0.10355326 -0.11566994 -0.078291722 4294946940
-0.10312981 -0.11471251 -0.077936403 4294881924
-0.10270636 -0.11375508 -0.077581085 4294750338
-0.10228291 -0.11279765 -0.077225775 4294749836
-0.10119706 -0.1120713 -0.076071061 4294552457
-0.10077421 -0.11111522 -0.075716242 4294883212
-0.10035136 -0.11015914 -0.075361431 4293962110
-0.099928498 -0.10920304 -0.075006612 4293174127
-0.10016564 -0.10801043 -0.075449176 4291989853
-0.099742197 -0.107053 -0.075093858 4292254581
-0.099318735 -0.10609556 -0.074738532 4291201893
-0.099553488 -0.10489753 -0.075179078 4291333731
-0.099129438 -0.10393873 -0.074823253 4291531110
-0.099362388 -0.10273663 -0.075262278 4291662181
-0.099594176 -0.1015318 -0.07570035 4291267423
-0.099824727 -0.10032427 -0.076137364 4290610791
-0.099398881 -0.09936142 -0.075780042 4291005549
-0.099627629 -0.098149821 -0.076215543 4290940016
-0.099201173 -0.097185597 -0.075857706 4290347879
-0.099428132 -0.095969945 -0.076291703 4290413662
-0.099653915 -0.094751537 -0.076724738 4290413662
-0.099878468 -0.093530454 -0.077156723 4291071592
-0.10010182 -0.092306666 -0.077587709 4290940004
-0.10097497 -0.090823263 -0.078807488 4290479453
-0.10119536 -0.08959268 -0.079236001 4290345551
-0.10206432 -0.088099808 -0.080452263 4290345551
-0.10228168 -0.08686246 -0.080878213 4290212661
-0.10184923 -0.08588466 -0.08051534 4289883696
-0.10271282 -0.084379561 -0.081727125 4289158933
-0.10227918 -0.083399087 -0.081363253 4290277414
-0.10249233 -0.082152218 -0.081785679 4290343702
-0.10270429 -0.080902658 -0.082207099 4289817358
-0.10226944 -0.079919457 -0.081842214 4290012967
-0.10183459 -0.078936242 -0.081477329 4288368142
-0.10139974 -0.077953041 -0.081112452 4285867777
-0.10096489 -0.07696984 -0.080747567 4286525707
-0.10053004 -0.075986624 -0.08038269 4286595872
-0.10009519 -0.075003415 -0.080017805 4286266907
-0.011202243 -0.098761275 0.026235813 4294955435
-0.010212357 -0.098251916 0.027309986 4294956463
-0.0092236698 -0.097745277 0.028383153 4294959805
-0.0082361447 -0.097241357 0.029455362 4294957749
-0.0072498652 -0.096740149 0.030526519 4294957231
-0.0068953852 -0.09593866 0.030823963 4294956974
-0.0059108986 -0.095441513 0.031893604 4294826670
-0.0055570235 -0.094641387 0.032190543 4294960055
-0.0052031428 -0.093841255 0.032487482 4294959283
-0.0054774825 -0.092732735 0.032013725 4294893233
-0.0051230029 -0.091931246 0.032311168 4294961593
-0.00539554 -0.090818658 0.031838913 4294827951
-0.0050404607 -0.090015814 0.032136861 4294302121
-0.0046853814 -0.089212969 0.032434806 4294565293
-0.0043303077 -0.088410139 0.032732747 4294960320
-0.0039752345 -0.087607302 0.033030692 4294367412
-0.0036201582 -0.086804464 0.033328634 4293710252
-0.0032650817 -0.086001627 0.033626579 4293710252
-0.0029100026 -0.085198782 0.033924527 4294499768
-0.0031771781 -0.084073968 0.033456761 4294500018
-0.0028215023 -0.083269775 0.033755209 4294964424
-0.0024658239 -0.082465574 0.034053657 4294960560
-0.0021101511 -0.081661388 0.034352101 4294828717
-0.0023742886 -0.080529802 0.033886906 4294894258
-0.0020180165 -0.07972426 0.034185853 4294828465
-0.0022803536 -0.078588597 0.033722166 4294959283
-0.0019234765 -0.077781692 0.034021623 4294827440
-0.0021840164 -0.076641977 0.033559434 4294959537
-0.0018265401 -0.075833715 0.033859391 4294762158
-0.0014690666 -0.075025454 0.034159347 4294961326
-0.0017272057 -0.073880307 0.033699185 4294960298
-0.0013691301 -0.073070683 0.033999644 4294762662
-0.0010110573 -0.072261073 0.034300104 4294828455
-0.001266832 -0.07111048 0.033841904 4294762410
-0.00090815994 -0.070299514 0.034142867 4294959789
-0.0011621012 -0.069144867 0.033686224 4294827690
-0.00080282695 -0.068332538 0.03398769 4294827690
-0.0010549731 -0.067173839 0.033532556 4294959542
-0.0013059103 -0.06601242 0.033078425 4294562985
-0.00094543752 -0.065197378 0.0333809 4290682231
-0.0011946172 -0.064031877 0.032928232 4290682231
-0.00083354238 -0.063215472 0.03323121 4289892715
-0.0010808886 -0.062045921 0.032780103 4289761904
-0.0013270334 -0.060873654 0.032330003 4290880385
-0.00096476276 -0.060054548 0.032633983 4291733632
-0.001209102 -0.058878209 0.032185391 4292654734
-0.0014522475 -0.057699159 0.031737808 4294955681
-0.001694233 -0.056517389 0.031291179 4294956709
-0.0013301588 -0.055694204 0.031596672 4294956973
-0.0015703051 -0.054508373 0.031151606 4294956716
-0.0012056344 -0.053683843 0.031457603 4292782488
-0.0014439828 -0.052493945 0.031014044 4289032287
-0.0016811278 -0.051301338 0.030571487 4287584602
-0.0019170762 -0.050106015 0.030129943 4288308325
-0.001550602 -0.049277406 0.030437451 4288112483
-0.0011841336 -0.048448808 0.030744955 4288112483
-0.0014177148 -0.047248039 0.030305378 4289689967
-0.0016500703 -0.046044592 0.029866848 4292584859
-0.0012823947 -0.045213263 0.030175366 4294952874
-0.0015129419 -0.04400574 0.029738344 4294955444
-0.0011446727 -0.043173075 0.030047359 4294952871
-0.001373424 -0.041961476 0.029611854 4294952871
-0.0016010123 -0.040747155 0.029177304 4294953128
-0.0018273636 -0.039530132 0.028743815 4294953139
-0.0014572908 -0.038693387 0.029054342 4293702558
-0.0016818471 -0.037472304 0.028622357 4292914841
-0.0019051943 -0.036248501 0.028191378 4289296226
-0.0015339259 -0.035409052 0.028502909 4292255362
-0.00175548 -0.034181185 0.028073443 4294953389
-0.0013836094 -0.033340372 0.028385481 4294952870
-0.0016033985 -0.032108415 0.027957477 4294952099
-0.0018219533 -0.030873766 0.027530527 4294886303
-0.0014488841 -0.030030245 0.02784357 4294294166
-0.0010758149 -0.029186724 0.028156612 4294886049
-0.0012919679 -0.027946653 0.027731668 4294954155
-0.0015069242 -0.026703866 0.027307739 4294886301
-0.0017206819 -0.025458371 0.026884815 4294952094
-0.001345812 -0.024610778 0.027199369 4294095756
-0.0015578048 -0.023361193 0.026777906 4294622100
-0.0017685603 -0.022108909 0.026357502 4294951330
-0.0019781154 -0.02085392 0.025938096 4294953129
-0.0021864767 -0.019596223 0.025519701 4294953129
-0.0023936694 -0.018335784 0.025102265 4293111439
-0.0025996307 -0.017072661 0.024685884 4292716681
-0.0028043857 -0.01580682 0.024270505 4294821028
-0.003007947 -0.014538269 0.023856137 4291268206
-0.0032103069 -0.013267001 0.023442777 4292845185
-0.003411504 -0.011993007 0.023030374 4294951075
-0.0036114666 -0.01071632 0.022619026 4294951836
-0.0038102232 -0.0094369156 0.022208679 4294951065
-0.0040077874 -0.0081548048 0.021799345 4294951063
-0.0042041829 -0.006869955 0.021390971 4294556305
-0.0038209173 -0.0060033794 0.021712568 4294951322
-0.0045933067 -0.0042921673 0.020577328 4294951065
-0.0047860723 -0.0029992072 0.020172019 4294951311
-0.0044010072 -0.0021285634 0.020495126 4294950797
-0.0040159412 -0.0012579162 0.020818235 4294620801
-0.0038206412 0.00091247255 0.020738551 4294884745
0.034955591 -0.018600542 0.068376757 4290939766
0.035872903 -0.018255282 0.069390029 4290742387
0.036220782 -0.017468715 0.069681935 4290873961
0.037136286 -0.017127523 0.070693709 4290939754
0.038050637 -0.016789066 0.071704507 4291597934
0.038963746 -0.016453296 0.072714262 4291400555
0.03987566 -0.016120238 0.073723011 4291992954
0.040786374 -0.015789893 0.074730754 4291071852
0.041695923 -0.015462287 0.075737529 4291071340
0.043168269 -0.015590872 0.077460103 4291531891
0.044074785 -0.01527002 0.078464322 4291727737
0.04554297 -0.015408124 0.080183417 4290740842
0.046446484 -0.015094053 0.081185117 4290998626
0.047348801 -0.014782692 0.082185812 4289024836
0.048810985 -0.01493436 0.083899871 4289015588
0.0497103 -0.014629781 0.084898055 4288357658
0.050608419 -0.014327914 0.085895225 4288684308
0.051505338 -0.014028761 0.08689139 4288881687
0.051842421 -0.013266605 0.087174237 4288617748
0.052737538 -0.01297152 0.088168897 4288420369
0.053631492 -0.012679174 0.089162588 4289009678
0.053967375 -0.011919732 0.089444421 4290457124
0.054859493 -0.011631425 0.09043657 4290456099
0.055750415 -0.011345834 0.091427699 4290324513
0.056085099 -0.010589104 0.091708533 4289401617
0.056974221 -0.010307579 0.092698157 4289664789
0.057308305 -0.0095522059 0.092978485 4289401869
0.058195621 -0.00927475 0.093966603 4290915108
0.059081778 -0.0090000341 0.094953753 4289601297
0.059414659 -0.0082473736 0.095233075 4290588192
0.060298983 -0.0079766978 0.096218668 4288152576
0.060631268 -0.0072253929 0.096497491 4289336846
0.061513793 -0.0069587855 0.097481579 4289730323
0.061845478 -0.006208837 0.097759895 4289664530
0.0627262 -0.0059462981 0.09874247 4289994260
0.063057281 -0.0051977052 0.099020287 4289665295
0.063936241 -0.0049392646 0.10000139 4290191126
0.064266726 -0.0041920277 0.1002787 4289072645
0.064597212 -0.0034447918 0.10055601 4289400838
0.064927697 -0.0026975553 0.10083332 4289466631
0.065803617 -0.0024458657 0.10181188 4289793801
0.066133507 -0.0016999855 0.10208868 4289793801
0.066463389 -0.00095410523 0.10236549 4289596422
0.067336917 -0.00070783996 0.10334203 4289331968
0.067666203 3.6684109e-05 0.10361833 4290187276
0.067995489 0.00078120822 0.10389463 4289333250
0.068324775 0.0015257322 0.10417093 4289333250
0.06865406 0.0022702564 0.10444724 4289466122
0.068983346 0.0030147803 0.10472354 4288282624
0.069312632 0.0037593045 0.10499984 4288873987
0.06964191 0.0045038289 0.10527615 4288873987
0.069971196 0.0052483524 0.10555245 4288807942
0.070300482 0.0059928768 0.10582875 4288807942
0.070629768 0.0067374008 0.10610505 4289072393
0.070959054 0.0074819257 0.10638136 4289072393
0.07128834 0.0082264496 0.10665766 4288676865
0.07108178 0.0094882166 0.10624078 4289269002
0.071411662 0.010234097 0.10651758 4289532944
0.071741551 0.010979977 0.10679439 4288743428
0.072071433 0.011725858 0.1070712 4288941318
0.071867876 0.012994408 0.10665682 4290125592
0.072198361 0.013741644 0.10693413 4289003781
0.072528847 0.014488881 0.10721144 4290780192
0.072327651 0.015762886 0.10679904 4290253839
0.072658733 0.016511478 0.10707686 4290517011
0.072989814 0.017260071 0.10735467 4290845449
0.072791062 0.01853947 0.10694432 4290516484
0.07312274 0.019289417 0.10722264 4290777856
0.072925776 0.020572884 0.10681381 4291106820
0.073258065 0.021324189 0.10709263 4291960342
0.073590346 0.022075495 0.10737145 4291960342
0.073395781 0.023364386 0.10696463 4292026135
0.073728666 0.024117047 0.10724395 4292685863
0.07406155 0.024869708 0.10752328 4292225312
0.074394435 0.025622368 0.1078026 4291835156
0.074202836 0.026918072 0.10739825 4293348395
0.075060204 0.027127691 0.10836124 4291509773
0.074869804 0.028426107 0.1079579 4292825633
0.075203292 0.029180126 0.10823773 4292171814
0.075536773 0.02993414 0.10851756 4292106021
0.075870261 0.030688161 0.10879738 4291916878
0.076203741 0.031442173 0.10907721 4290469432
0.076537222 0.03219619 0.10935703 4287514146
0.07687071 0.032950211 0.10963686 4285737735
-0.19984259 -0.1571551 -0.1858291 4285810480
-0.19865878 -0.15620501 -0.18459016 4285614896
-0.19887213 -0.15496087 -0.18501478 4285483310
-0.19838691 -0.15386373 -0.18460763 4285351724
-0.19790168 -0.15276662 -0.18420048 4285417517
-0.19672026 -0.15182194 -0.18296355 4285680943
-0.19693123 -0.15057239 -0.18338616 4285615150
-0.19644599 -0.14947526 -0.182979 4285615150
-0.19596076 -0.14837815 -0.18257186 4285417258
-0.19547553 -0.14728102 -0.1821647 4285483051
-0.19568351 -0.14602466 -0.18258484 4285941801
-0.19519769 -0.14492618 -0.18217717 4285810215
-0.19471186 -0.14382772 -0.18176952 4285679142
-0.19422601 -0.14272921 -0.18136185 4285876521
-0.1937402 -0.14163075 -0.1809542 4285876525
-0.19325437 -0.14053227 -0.18054654 4285744939
-0.19345811 -0.13926643 -0.18096313 4285547570
-0.19297168 -0.13816659 -0.18055496 4285744949
-0.19248524 -0.13706677 -0.1801468 4285876019
-0.1926866 -0.1357955 -0.18056136 4285349675
-0.19219956 -0.13469428 -0.18015268 4285085990
-0.19171254 -0.13359313 -0.17974402 4284822818
-0.19122551 -0.13249193 -0.17933536 4285019679
-0.19073847 -0.13139071 -0.17892668 4284164370
-0.19093624 -0.13011132 -0.17933822 4282914821
-0.19044861 -0.12900878 -0.17892906 4283046407
-0.18996097 -0.12790623 -0.17851989 4282126852
-0.19015633 -0.1266214 -0.1789294 4281863680
-0.1896681 -0.12551752 -0.17851974 4284101911
-0.1898617 -0.1242286 -0.17892781 4285088806
-0.18937287 -0.12312333 -0.17851762 4285351976
-0.18888405 -0.12201808 -0.17810746 4285023011
-0.1890752 -0.12072378 -0.17851347 4285284900
-0.18858576 -0.11961714 -0.17810279 4285284900
-0.18809633 -0.11851053 -0.17769212 4285219107
-0.18692873 -0.11759707 -0.17646675 4284695343
-0.18576227 -0.11668628 -0.17524235 4284497964
-0.18527403 -0.11558238 -0.17483269 4284236843
-0.18478581 -0.11447848 -0.17442301 4284565808
-0.18429758 -0.11337458 -0.17401333 4284957736
-0.18380935 -0.11227068 -0.17360367 4284694564
-0.18264653 -0.11136802 -0.17238232 4284890660
-0.1821589 -0.11026549 -0.17197317 4285022246
-0.18167126 -0.10916293 -0.171564 4285087017
-0.18051085 -0.10826573 -0.17034468 4285021224
-0.17867945 -0.10757792 -0.16831674 4284890660
-0.11224763 -0.12139598 -0.089240849 4286534715
-0.10829388 -0.11936265 -0.084940828 4294618491
-0.10786742 -0.11839843 -0.084582992 4294618491
-0.10610979 -0.11787742 -0.08261694 4294683514
-0.10568454 -0.11691593 -0.082260117 4294749307
-0.10459486 -0.11617875 -0.081100143 4294814841
-0.1041702 -0.11521859 -0.080743812 4294946684
-0.10308236 -0.11448548 -0.079585403 4294750084
-0.10265832 -0.11352669 -0.079229586 4294750084
-0.10223427 -0.1125679 -0.078873761 4294488204
-0.10114882 -0.11184019 -0.077717341 4294949269
-0.10072537 -0.11088275 -0.077362031 4294423692
-0.10030192 -0.10992532 -0.077006713 4293897348
-0.099878468 -0.10896788 -0.076651394 4292779896
-0.099455014 -0.10801043 -0.076296069 4291990380
-0.099689946 -0.10681511 -0.076738827 4291596401
-0.099265896 -0.10585632 -0.076383002 4290543713
-0.099499039 -0.10465693 -0.07682424 4291268706
-0.099731021 -0.10345481 -0.077264518 4291202913
-0.099305764 -0.10249331 -0.076907687 4291135837
-0.099535912 -0.10128713 -0.077346399 4290741079
-0.099764846 -0.10007825 -0.077784128 4290938989
-0.099338405 -0.099114053 -0.077426292 4290610024
-0.099565543 -0.097901084 -0.077862486 4290215783
-0.099138491 -0.096935503 -0.077504151 4290544748
-0.099363878 -0.095718481 -0.077938892 4290544733
-0.099588022 -0.094498739 -0.078372575 4290544733
-0.099810965 -0.093276292 -0.078805253 4290544733
-0.10003272 -0.092051156 -0.07923694 4290545496
-0.10025325 -0.090823263 -0.079667598 4290084945
-0.10112204 -0.089334458 -0.080887817 4289819461
-0.10133959 -0.088099808 -0.081315964 4289819461
-0.10155594 -0.08686246 -0.081743121 4289949489
-0.10177112 -0.085622355 -0.082169302 4289752110
-0.10133807 -0.084643222 -0.081805937 4289619731
-0.10155142 -0.083399087 -0.08223056 4290343454
-0.10176357 -0.082152218 -0.082654171 4289751826
-0.10132932 -0.081170365 -0.082289793 4289883412
-0.10153968 -0.079919457 -0.082711905 4287447565
-0.10110483 -0.078936242 -0.082347028 4285605376
-0.10066998 -0.077953041 -0.081982143 4286660118
-0.10023513 -0.07696984 -0.081617266 4286396946
-0.099800281 -0.075986624 -0.081252381 4286266653
-0.0081480322 -0.10184252 0.028810348 4288051847
-0.0084273592 -0.10074756 0.028330354 4288051847
-0.007440282 -0.10024227 0.029404221 4289101952
-0.0070864069 -0.099442147 0.029701158 4290154640
-0.0067325262 -0.098642014 0.029998099 4291208084
-0.0057478468 -0.098142155 0.031069946 4292787116
-0.0053945715 -0.097343393 0.031366378 4294232496
-0.0050412901 -0.096544608 0.031662818 4294956219
-0.0046880143 -0.095745839 0.031959251 4294960060
-0.0043347385 -0.094947077 0.032255683 4294959546
-0.0046092654 -0.093841255 0.031779725 4294959796
-0.0042553907 -0.093041129 0.032076664 4294958254
-0.0039015156 -0.092241012 0.0323736 4294828205
-0.0035476408 -0.091440886 0.032670535 4294960562
-0.0038191664 -0.090328291 0.032197088 4294960310
-0.0034646865 -0.089526802 0.03249453 4294962623
-0.0031102123 -0.088725321 0.032791968 4294763190
-0.0027557381 -0.087923847 0.033089411 4294565811
-0.0024012611 -0.087122358 0.033386849 4294961602
-0.0020467839 -0.086320877 0.033684291 4294959803
