# .PCD v0.7 - Point Cloud Data file format
VERSION 0.7
FIELDS x y z rgb
SIZE 4 4 4 4
TYPE F F F U
COUNT 1 1 1 1
WIDTH 1007
HEIGHT 1
VIEWPOINT 0 0 0 1 0 0 0
POINTS 1007
DATA ascii
0.10142991 -0.13048202 -0.059455965 4282665294
0.10109875 -0.13219422 -0.059107151 4281615686
0.10128764 -0.13371155 -0.059626106 4281811268
0.10147652 -0.13522886 -0.060145061 4282005817
0.10166541 -0.1367462 -0.06066402 4282005817
0.10185429 -0.13826351 -0.061182972 4283059532
0.10204317 -0.13978083 -0.061701927 4283058762
0.10223206 -0.14129816 -0.062220883 4282469452
0.039967291 0.02460265 0.063177891 4294901755
0.040133633 0.023266425 0.06272088 4294901755
0.039092951 -0.0075466428 0.06059958 4288847269
0.040227722 -0.0079571465 0.058588617 4289765811
0.040877808 -0.0088268481 0.057355907 4290752186
0.042014714 -0.009254477 0.055339087 4287717733
0.042666327 -0.010136417 0.054102194 4286730838
0.043805335 -0.010581205 0.052079558 4291204241
0.04494559 -0.011035753 0.050053533 4290482828
0.046574447 -0.011062968 0.047238465 4287252546
0.047717448 -0.011539542 0.045204908 4287515718
0.049349647 -0.011593677 0.042380631 4290352525
0.05049539 -0.012092274 0.040339541 4287447360
0.052130941 -0.012173328 0.037506059 4286593344
0.053279426 -0.012693957 0.035457429 4291001475
0.054429099 -0.013224399 0.033405501 4287523186
0.05558002 -0.013764604 0.031350181 4289101443
0.056732133 -0.014314624 0.029291555 4287855487
0.058375634 -0.014459282 0.026436264 4291539895
0.10742939 0.0180375 -0.054105159 4283444268
0.10714122 0.015999814 -0.053866833 4283441440
0.10685246 0.013967023 -0.053626835 4284424993
0.10705566 0.012334681 -0.05418513 4285016615
0.10627307 0.0099161062 -0.053141765 4285081125
0.10598247 0.0078980001 -0.052896749 4284883746
0.10519777 0.005496582 -0.051847573 4284817437
0.10539945 0.0038764721 -0.052401684 4284882460
0.10461289 0.0014897132 -0.051347442 4284882460
0.10481396 -0.00012550269 -0.05189988 4284882203
0.10452031 -0.0021191356 -0.05164649 4284882203
0.10472108 -0.0037319046 -0.05219809 4284815638
0.10492185 -0.0053446703 -0.052749686 4284815638
0.11302397 -0.02255181 -0.068922773 4284223501
0.11322809 -0.024191497 -0.069483578 4284026892
0.11293231 -0.026168 -0.069224328 4283763977
0.11263593 -0.028139608 -0.068963408 4283698184
0.11283943 -0.029774403 -0.069522537 4283501575
0.11254214 -0.031738669 -0.0692591 4283239175
0.11274534 -0.033371016 -0.069817394 4282583301
0.11294854 -0.03500336 -0.070375688 4281338117
0.11315175 -0.036635708 -0.07093399 4281272324
0.11335495 -0.038268052 -0.071492285 4281010179
0.11355816 -0.0399004 -0.072050579 4281010179
0.11376136 -0.041532747 -0.072608873 4281075972
0.11396456 -0.043165095 -0.073167168 4280879363
0.11416776 -0.044797439 -0.073725462 4280879363
0.11437096 -0.046429787 -0.074283756 4280879363
0.11407028 -0.04836715 -0.074011073 4280945156
0.11326487 -0.050602153 -0.072904982 4280945156
0.11296269 -0.052527264 -0.072628155 4280945156
0.11165035 -0.055042814 -0.070682704 4280945156
0.11033617 -0.057543684 -0.068732239 4281010949
0.10952558 -0.059737083 -0.067611918 4281141765
0.10871376 -0.061920695 -0.066488251 4281273351
0.10840669 -0.063806668 -0.066197984 4281404937
0.10759274 -0.065973148 -0.065068461 4284630079
0.10627095 -0.068412833 -0.063097067 4283708977
0.10545426 -0.070557289 -0.061960004 4286930004
0.10463632 -0.07269197 -0.060819548 4286464567
0.10432471 -0.074541211 -0.060516775 4288764238
0.10401247 -0.076385565 -0.060212325 4289356886
0.10369964 -0.078225017 -0.059906203 4288764749
0.10287774 -0.080327883 -0.058754865 4288303941
0.10307211 -0.081889264 -0.059288885 4287654247
0.10326648 -0.083450638 -0.059822906 4286153610
0.10346085 -0.085012011 -0.06035693 4285567129
0.10314558 -0.08683189 -0.06004411 4285896094
0.10333964 -0.08839082 -0.060577296 4286028455
0.10302345 -0.090203352 -0.060261969 4286357674
0.10321721 -0.091759831 -0.060794316 4286487463
0.10290011 -0.093565024 -0.060476471 4285631387
0.10258237 -0.095365338 -0.060156908 4285170836
0.10175257 -0.097404562 -0.058983859 4284842134
0.10143334 -0.099192619 -0.058660157 4284447124
0.10111351 -0.10097579 -0.058334783 4285691274
0.10130543 -0.10251758 -0.058862105 4288044892
0.10149737 -0.10405938 -0.059389431 4288110685
0.10117627 -0.10583278 -0.059060659 4290869871
0.10085461 -0.10760126 -0.058730263 4289423967
0.10104593 -0.10913816 -0.059255917 4288896853
0.10123724 -0.11067507 -0.059781566 4288963418
0.10091435 -0.11243375 -0.059447825 4286331698
0.10110537 -0.11396822 -0.05997264 4286202940
0.10078157 -0.11571956 -0.059636381 4285292122
0.10097228 -0.11725157 -0.060160361 4281215535
0.10116299 -0.11878358 -0.060684334 4285435541
0.1013537 -0.12031558 -0.061208315 4284974990
0.10102835 -0.12205472 -0.060867824 4282873479
0.10121875 -0.12358428 -0.061390962 4282870139
0.10192584 -0.12491161 -0.062780246 4285233029
0.10159957 -0.1266434 -0.062437244 4282001717
0.10230727 -0.12797561 -0.0638282 4282659647
0.10249798 -0.12950763 -0.064352177 4282796364
0.10217079 -0.13123207 -0.064006664 4282010957
0.10184303 -0.13295162 -0.063659526 4281745475
0.10255161 -0.1342912 -0.065052941 4282071869
0.10222323 -0.13600585 -0.064704135 4281940283
0.10241334 -0.13753295 -0.065226436 4282928718
0.10208405 -0.13924025 -0.064875118 4282929231
0.16242747 -0.2931903 -0.18860932 4282607721
0.038298387 0.027275093 0.063605577 4294967285
0.038464729 0.025938874 0.063148566 4294901753
0.038631067 0.02460265 0.062691547 4294901755
0.038797408 0.023266425 0.062234532 4294901755
0.038963746 0.021930201 0.061777517 4294901755
0.038984824 0.017428095 0.061173853 4294770683
0.038838338 0.014271995 0.061030544 4294770683
0.038525205 0.012454577 0.061345097 4294770683
0.038211465 0.010642038 0.061661314 4294639611
0.036950387 0.0034408236 0.062942989 4293591036
0.036633566 0.0016527411 0.063267626 4293984254
0.036316168 -0.00013042708 0.063593887 4294574075
0.035998166 -0.0019086944 0.063921832 4294574075
0.036161158 -0.0032179991 0.063474022 4294639611
0.036324147 -0.0045273039 0.063026212 4294639611
0.036487132 -0.0058366018 0.06257841 4294639611
0.036650121 -0.0071459068 0.062130596 4290491583
0.03777875 -0.0075466428 0.060121249 4288912551
0.038425509 -0.0084089767 0.058890115 4289830834
0.039556272 -0.0088268481 0.056874905 4290489786
0.040688284 -0.009254477 0.054856304 4290812572
0.041337445 -0.010136417 0.05361852 4286141269
0.042955905 -0.010139155 0.050809152 4289622388
0.043606929 -0.011035753 0.049566299 4293112749
0.045228437 -0.011062968 0.04674856 4287974472
0.046366543 -0.011539542 0.044713218 4287908679
0.047991399 -0.011593677 0.04188627 4289100921
0.04913225 -0.012092274 0.039843399 4288299076
0.050760459 -0.012173328 0.037007242 4287447110
0.051904049 -0.012693957 0.034956835 4291263104
0.05304883 -0.013224399 0.032903127 4287520874
0.053707737 -0.014184652 0.031638555 4288376433
0.054854676 -0.014732201 0.029578937 4289171861
0.056002811 -0.015289562 0.027516022 4283383370
0.10929346 0.024574315 -0.059954602 4283643965
0.10852186 0.022106795 -0.058926199 4283051828
0.10823828 0.020051979 -0.058692843 4283048485
0.10795408 0.018002059 -0.058457814 4283375649
0.10766929 0.01595703 -0.058221113 4284031521
0.10738385 0.013916877 -0.057982687 4284490786
0.10709783 0.011881639 -0.057742637 4284556579
0.10582972 0.0090699885 -0.055895846 4284161821
0.10603292 0.0074376422 -0.056454141 4284358687
0.10476205 0.0046479916 -0.054599769 4284357917
0.10496433 0.0030229876 -0.055155553 4284226331
0.10516662 0.0013979822 -0.055711336 4284226331
0.10536891 -0.0002270214 -0.05626712 4284291609
0.1055712 -0.0018520268 -0.056822903 4284160023
0.10528062 -0.0038505518 -0.056570299 4284160023
0.10498942 -0.0058441865 -0.056316018 4284290839
0.1051911 -0.007464298 -0.056870129 4284290839
0.10489896 -0.0094506107 -0.056613285 4284225046
0.10559446 -0.010704516 -0.057978347 4284225046
0.10579614 -0.012324627 -0.058532458 4284225046
0.10599782 -0.013944737 -0.059086569 4284093460
0.1066945 -0.015208453 -0.060454927 4284093460
0.1073918 -0.016477065 -0.061824962 4284093460
0.10759409 -0.018102068 -0.062380746 4284225046
0.10878822 -0.019028971 -0.064570054 4284225046
0.10948737 -0.020312244 -0.065945163 4284225300
0.10969058 -0.021944592 -0.066503458 4284093714
0.11039061 -0.023235228 -0.067881025 4284027151
0.11059412 -0.024870021 -0.068440154 4283961358
0.11079763 -0.026504815 -0.06899929 4283895565
0.11100113 -0.028139608 -0.069558419 4283567370
0.11120465 -0.029774403 -0.070117556 4283501577
0.11140815 -0.031409197 -0.070676684 4283370761
0.11161166 -0.033043988 -0.071235821 4283108618
0.11231413 -0.034354206 -0.072620079 4281731846
0.11251795 -0.035991445 -0.07318005 4281468674
0.11322133 -0.037309002 -0.074566826 4281010179
0.11342545 -0.038948689 -0.075127631 4280813570
0.11412975 -0.040273588 -0.076516919 4280748290
0.11433417 -0.041915726 -0.077078559 4280748292
0.11503943 -0.043247946 -0.078470409 4280748292
0.11474302 -0.045199998 -0.078201845 4280617476
0.11494744 -0.046842128 -0.078763492 4280617476
0.11465015 -0.048786815 -0.07849247 4280814085
0.11385024 -0.051026717 -0.077386275 4280683269
0.11304908 -0.053256847 -0.076276675 4280683269
0.11174411 -0.055772379 -0.074328609 4280879878
0.11094021 -0.057980482 -0.073211484 4280945669
0.11013512 -0.060178779 -0.072091058 4281142535
0.10882523 -0.062655173 -0.070129544 4281733127
0.1080174 -0.064831443 -0.069001585 4286404943
0.10720832 -0.066997938 -0.067870222 4286141771
0.1058936 -0.069435157 -0.065895371 4288507491
0.10457701 -0.071857713 -0.063915446 4288240974
0.10477382 -0.073438667 -0.064456165 4289159248
0.1039599 -0.075565986 -0.063311465 4289356884
0.10365038 -0.077412799 -0.063006915 4289291091
0.10334031 -0.079254709 -0.062700741 4288961099
0.10302961 -0.081091717 -0.062392887 4287914841
0.1032249 -0.082660429 -0.062929422 4286543481
0.10342018 -0.084229149 -0.063465953 4285170570
0.10310826 -0.086056367 -0.063154757 4285302156
0.10330324 -0.087622635 -0.063690454 4285238941
0.10349821 -0.089188904 -0.064226151 4285436836
0.10318509 -0.091006331 -0.063911602 4286028457
0.10287131 -0.092818886 -0.063595332 4286487979
0.10255697 -0.094626524 -0.063277438 4286619565
0.10224201 -0.096429266 -0.062957868 4286026658
0.10141708 -0.098468505 -0.061782982 4285960865
0.10110061 -0.10025901 -0.061459228 4285892244
0.10078351 -0.10204463 -0.061133802 4288315520
0.10097605 -0.10359132 -0.061662801 4287854969
0.10065804 -0.1053696 -0.061334863 4289558894
0.10033943 -0.10714297 -0.06100525 4288900451
0.10053136 -0.10868477 -0.061532576 4288834658
0.10021181 -0.11045083 -0.061200403 4288639337
0.099891663 -0.11221196 -0.060866602 4288573544
0.10008299 -0.11374887 -0.061392255 4288383878
0.10027431 -0.11528576 -0.061917905 4286813333
0.10046563 -0.11682267 -0.062443558 4284450195
0.10065695 -0.11835957 -0.062969208 4282872455
0.10084827 -0.11989647 -0.063494861 4282477697
0.1010396 -0.12143337 -0.064020507 4282607741
0.10123092 -0.12297028 -0.06454616 4284245620
0.10193644 -0.12430496 -0.065938793 4283248954
0.1026426 -0.12564453 -0.067333154 4283246377
0.10283453 -0.12718633 -0.067860484 4283312170
0.10302646 -0.12872814 -0.068387806 4283648842
0.10321839 -0.13026991 -0.068915129 4282668887
0.10289457 -0.13200171 -0.06857124 4282142032
0.1030862 -0.13354106 -0.069097728 4283456093
0.10327782 -0.13508041 -0.069624215 4282271819
0.10295281 -0.13680239 -0.069277026 4283325534
0.10314413 -0.13833928 -0.069802672 4283918956
0.16007797 -0.28805831 -0.18747669 4282607721
0.16029093 -0.28976896 -0.18806177 4282607721
0.15995733 -0.29142243 -0.18769109 4282607721
0.16016999 -0.29313067 -0.18827534 4282673514
0.16092977 -0.29490095 -0.18981703 4282607721
0.16114272 -0.29661161 -0.19040211 4282607721
0.16135567 -0.29832226 -0.19098718 4282607721
0.036322761 0.028098302 0.06433782 4294962922
0.036488798 0.026764521 0.063881643 4294770679
0.036820866 0.024096973 0.06296929 4294901755
0.037461184 0.023266425 0.061748188 4294901755
0.037030891 0.01378345 0.06131592 4294770683
0.036719903 0.011968475 0.061632197 4294770683
0.035931561 0.0096747084 0.062721811 4294639611
0.03561905 0.0078719649 0.063042268 4293394425
0.034828573 0.0055953301 0.064137742 4293328888
0.034514539 0.0038048248 0.064462386 4293132281
0.033721954 0.0015453496 0.065563671 4293656573
0.033406395 -0.00023291766 0.065892503 4293984252
0.033568777 -0.0015373286 0.065446362 4294574078
0.033252273 -0.003308279 0.065777756 4294574078
0.033414349 -0.0046102465 0.065332457 4294639611
0.034055915 -0.0054505542 0.064107962 4294639611
0.034218293 -0.0067549585 0.063661829 4294770686
0.034860741 -0.0076026381 0.062434871 4290819267
0.035503801 -0.0084552113 0.06120624 4288779684
0.036628149 -0.0088608414 0.059193436 4289632172
0.037753746 -0.0092762355 0.057177238 4290620604
0.038880527 -0.0097014438 0.05515774 4291344062
0.04000856 -0.010136417 0.053134844 4291344062
0.041137785 -0.010581205 0.051108651 4286597961
0.042268254 -0.011035753 0.049079061 4293035652
0.043399911 -0.01150012 0.04704617 4288497218
0.045015629 -0.011539542 0.044221524 4291589489
0.046633147 -0.011593677 0.041391905 4287450190
0.047769099 -0.012092274 0.03934725 4289347396
0.04938997 -0.012173328 0.036508426 4287051839
0.050528668 -0.012693957 0.034456234 4291591556
0.051184215 -0.013646866 0.033193287 4288638835
0.05232501 -0.014184652 0.031135283 4288640890
0.052982114 -0.015149774 0.029868102 4290949306
0.054610293 -0.015289562 0.027009189 4282528831
0.10909513 0.025797673 -0.062950328 4283314487
0.10832936 0.023322834 -0.061922703 4282788143
0.10756236 0.020857785 -0.060891733 4282849825
0.10728121 0.018802945 -0.060657434 4283177504
0.10748684 0.017151019 -0.061222427 4283570464
0.10671711 0.014707999 -0.060183924 4283636511
0.10643415 0.012667867 -0.059944652 4283702304
0.10566226 0.010241952 -0.058900241 4283439132
0.10537778 0.0082140546 -0.058656786 4283701534
0.10460377 0.0058052959 -0.057606563 4283832606
0.10480698 0.0041729477 -0.058164857 4283701020
0.10501018 0.0025406017 -0.058723155 4283701020
0.10472354 0.0005298144 -0.058473792 4283701020
0.10541659 -0.00072409096 -0.059839744 4283635227
0.10512934 -0.0027299807 -0.059588708 4283635227
0.1048415 -0.004730958 -0.059336048 4283701020
0.10455306 -0.0067270398 -0.059081715 4283701020
0.10426401 -0.0087182242 -0.058825705 4283701020
0.10446599 -0.010340782 -0.059380651 4283766300
0.10466797 -0.01196334 -0.0599356 4283766300
0.1043777 -0.013944737 -0.059676241 4283831060
0.10457938 -0.015564845 -0.060230352 4283831060
0.10478106 -0.017184956 -0.060784463 4283831060
0.10547591 -0.018453566 -0.062155388 4283831062
0.10617137 -0.019727074 -0.063527986 4283896853
0.10637365 -0.021352077 -0.06408377 4283896853
0.10756411 -0.022288768 -0.066278204 4283896853
0.10826143 -0.023576938 -0.067655876 4283765265
0.10846463 -0.025209283 -0.068214171 4283830290
0.10866784 -0.026841629 -0.068772472 4283896083
0.10887104 -0.028473977 -0.069330767 4283699474
0.10956985 -0.029774403 -0.070712574 4283502095
0.10977335 -0.031409197 -0.071271703 4283436302
0.11047308 -0.032716963 -0.072656021 4283174926
0.11117341 -0.034029625 -0.074042015 4281994764
0.11187436 -0.035347182 -0.075429678 4281731592
0.11257593 -0.036669616 -0.076819062 4280879365
0.1132781 -0.037996963 -0.078210078 4280682499
0.11398087 -0.039329201 -0.079602771 4280551683
0.11468425 -0.040666338 -0.080997132 4280551683
0.11488989 -0.042318262 -0.081562117 4280551683
0.11509553 -0.043970186 -0.082127109 4280552196
0.11530117 -0.04562211 -0.082692102 4280486403
0.11550681 -0.047274034 -0.083257094 4280617989
0.11521288 -0.049226064 -0.082987696 4280618759
0.11391857 -0.051768534 -0.081046112 4280750345
0.11262245 -0.054296307 -0.079099558 4280750859
0.11182498 -0.056516644 -0.077984832 4280749575
0.11052552 -0.059017494 -0.07602907 4281143302
0.10972529 -0.061215807 -0.074906811 4282193676
0.10842247 -0.063689739 -0.07294184 4283970087
0.10711781 -0.066148996 -0.070971794 4285020714
0.10631334 -0.068313032 -0.069837876 4285676846
0.10500532 -0.070745371 -0.067858621 4286004012
0.10470074 -0.072611749 -0.067559928 4286396969
0.1043955 -0.074473247 -0.067259505 4286792751
0.10358647 -0.076600567 -0.066113025 4286463786
0.10378328 -0.07818152 -0.066653743 4286726704
0.10347625 -0.080028325 -0.066348352 4286990139
0.10316861 -0.081870221 -0.066041283 4285613883
0.10336481 -0.083446287 -0.066580325 4284634188
0.10305623 -0.085280858 -0.066270694 4284699981
0.10325212 -0.086854473 -0.066808902 4284243808
0.10294265 -0.08868169 -0.066496819 4283456610
0.10263258 -0.090504013 -0.066183053 4283655021
0.1023219 -0.092321448 -0.065867618 4283786866
0.1015043 -0.09438026 -0.064697646 4283984245
0.1011921 -0.096185453 -0.064378023 4284050038
0.10087928 -0.097985752 -0.064056732 4284247417
0.10005864 -0.1000201 -0.062878393 4284443253
0.10025179 -0.10157168 -0.06340906 4285691002
0.099429354 -0.10359132 -0.062225752 4285625209
0.099621899 -0.10513801 -0.06275475 4286676090
0.099814437 -0.1066847 -0.063283749 4286609525
0.099498272 -0.10845809 -0.062953249 4286148976
0.099181488 -0.11022657 -0.062621072 4285886836
0.099373423 -0.11176836 -0.063148394 4285492078
0.09956535 -0.11331016 -0.063675724 4284442218
0.099757284 -0.11485196 -0.064203046 4283652702
0.099949211 -0.11639375 -0.064730376 4284705394
0.10014115 -0.11793555 -0.065257698 4283257948
0.10033307 -0.11947735 -0.065785028 4282928983
0.10103615 -0.12081203 -0.067178547 4282794052
0.10173984 -0.12215162 -0.068573751 4283118903
0.10244413 -0.12349609 -0.069970615 4283248174
0.10314903 -0.12484546 -0.071369164 4283116588
0.10436694 -0.12600239 -0.073638983 4283182120
0.1045607 -0.12755887 -0.074171335 4282921776
0.10475446 -0.12911536 -0.074703678 4282006074
0.10494822 -0.13067183 -0.07523603 4284511863
0.10668275 -0.13166571 -0.078387111 4284511863
0.10739131 -0.13304445 -0.079795703 4283459177
0.10758629 -0.13461071 -0.080331393 4283591790
0.10572325 -0.13689776 -0.077365413 4285303691
0.15794139 -0.284637 -0.18692918 4282607721
0.15815434 -0.28634766 -0.18751426 4282607721
0.15782383 -0.28800601 -0.18714435 4282607721
0.15803647 -0.28971422 -0.1877286 4282673514
0.15824912 -0.29142243 -0.18831284 4282607721
0.15846176 -0.29313067 -0.18889709 4282607721
0.15867442 -0.29483888 -0.18948133 4282673514
0.15888706 -0.29654706 -0.19006556 4282607721
0.15909971 -0.29825529 -0.19064982 4282673514
0.15931235 -0.29996347 -0.19123405 4282607721
0.034352638 0.028916612 0.065070167 4292367187
0.034518369 0.027585289 0.064614832 4294965743
0.034684099 0.026253957 0.06415949 4294901753
0.035321057 0.025430754 0.062940009 4294770681
0.035487093 0.024096973 0.062483832 4294770683
0.035653129 0.022763198 0.062027656 4294770683
0.035819165 0.021429418 0.061571475 4294770683
0.035512753 0.019597311 0.061882783 4294770683
0.035678484 0.018265987 0.06142744 4294770683
0.035844214 0.016934656 0.060972098 4294770683
0.035536591 0.015112337 0.061286759 4294770683
0.035228353 0.013294904 0.061603084 4294770683
0.034445509 0.010996251 0.062692806 4294770683
0.033661485 0.008707406 0.063785821 4294246393
0.032876205 0.0064283283 0.064882241 4292279016
0.032564614 0.0046378155 0.065207772 4292476395
0.032252416 0.002852211 0.065534987 4293787644
0.031464096 0.00059760251 0.066639774 4294311933
0.031150373 -0.001175771 0.066971168 4294443006
0.031312145 -0.002475288 0.066526704 4294639614
0.030997509 -0.004241324 0.066860609 4294639614
0.031635687 -0.0050743222 0.065637782 4294639614
0.03227447 -0.0059122071 0.064413287 4294639611
0.032436546 -0.0072141676 0.063967988 4294703870
0.033076271 -0.0080593694 0.062740929 4291213511
0.033716571 -0.0089094928 0.061512247 4288844963
0.034835726 -0.0093126791 0.059498496 4289168278
0.035956122 -0.0097256256 0.057481356 4286798436
0.037077706 -0.010148387 0.055460911 4292191409
0.038200539 -0.01058091 0.053437073 4289033345
0.039324559 -0.011023251 0.051409934 4290876571
0.040929586 -0.011035753 0.048591826 4287581513
0.042056348 -0.01150012 0.046557151 4289754742
0.043664727 -0.011539542 0.043729838 4293833908
0.044794232 -0.012025936 0.04168763 4288104525
0.046405964 -0.012092274 0.038851108 4289347396
0.048019487 -0.012173328 0.036009613 4287711055
0.049153291 -0.012693957 0.033955641 4290540154
0.050288279 -0.013224399 0.031898368 4289034876
0.050942298 -0.014184652 0.030632017 4288575872
0.051596951 -0.015149774 0.029363943 4290883259
0.052734982 -0.015704688 0.0272983 4281935924
0.10715412 0.02372817 -0.063325919 4282789426
0.10687665 0.021663565 -0.063094132 4283178790
0.10611395 0.019203413 -0.062059697 4283702054
0.10583492 0.017151019 -0.061823681 4283898663
0.10604056 0.015499097 -0.06238867 4283964454
0.10527512 0.013060967 -0.061346706 4284161833
0.10450842 0.010632605 -0.060301349 4284095526
0.10422669 0.0086022653 -0.060057845 4284292903
0.10394435 0.0065768152 -0.059812661 4284226597
0.1036614 0.0045562624 -0.059565805 4284095011
0.10386491 0.0029214672 -0.060124937 4284160804
0.10358104 0.00090825529 -0.059875574 4284160804
0.10378424 -0.00072409096 -0.060433868 4284160804
0.10398745 -0.0023564354 -0.060992163 4284160804
0.10370234 -0.0043598819 -0.060739402 4284160804
0.10292806 -0.0067270398 -0.059673164 4284226597
0.10264145 -0.0087182242 -0.059416264 4284226597
0.10284343 -0.010340782 -0.059971213 4284488999
0.10304542 -0.01196334 -0.060526159 4284291622
0.10275759 -0.013944737 -0.060265914 4284291622
0.10295927 -0.015564845 -0.060820024 4284291622
0.10316095 -0.017184956 -0.061374135 4284291622
0.10385335 -0.018453566 -0.062745951 4284357415
0.10454637 -0.019727074 -0.064119436 4284357415
0.10523999 -0.021005474 -0.065494604 4284489001
0.10593422 -0.022288768 -0.066871442 4284554794
0.10662908 -0.023576938 -0.06825 4284949552
0.10683229 -0.025209283 -0.068808295 4285147701
0.10703549 -0.026841629 -0.069366597 4285214007
0.1072387 -0.028473977 -0.069924891 4284489519
0.10793506 -0.029774403 -0.071307585 4284160554
0.10912549 -0.03075025 -0.073517196 4284818738
0.10932961 -0.032389939 -0.074078001 4284623669
0.11052191 -0.033380449 -0.076292686 4283180073
0.11122101 -0.034702901 -0.077682912 4281732627
0.1124154 -0.035710562 -0.079903409 4280813833
0.11361105 -0.036727995 -0.082127295 4280486151
0.1143126 -0.038070027 -0.08352422 4280026882
0.11451915 -0.039729293 -0.084091723 4279961089
0.1147257 -0.041388556 -0.084659226 4279961089
0.11542846 -0.042740379 -0.086059496 4279961089
0.11613183 -0.044097088 -0.087461449 4279830788
0.11584219 -0.046063803 -0.087196179 4280028680
0.11555192 -0.048025623 -0.086929232 4280161811
0.11476362 -0.05028021 -0.085824497 4280359190
0.11397408 -0.052525017 -0.084716357 4280557852
0.11268528 -0.055052806 -0.082767084 4280424722
0.11139469 -0.057565894 -0.080812834 4281080076
0.11010224 -0.060064312 -0.07885351 4282656789
0.10880798 -0.062548026 -0.076889217 4282656789
0.10751188 -0.065017082 -0.07491985 4283311889
0.1067135 -0.067190915 -0.073787443 4283770643
0.10541406 -0.069633037 -0.071808919 4284032532
0.10461295 -0.071784846 -0.070668973 4284097812
0.1043111 -0.073653668 -0.070370227 4284163605
0.10400866 -0.075517602 -0.070069797 4284163605
0.1037056 -0.077376634 -0.069767706 4284295191
0.10340191 -0.079230793 -0.069463879 4284295191
0.10309763 -0.081080034 -0.069158435 4284099097
0.10279274 -0.082924381 -0.068851314 4283576094
0.10298955 -0.084505334 -0.069392033 4283576094
0.10218114 -0.086598396 -0.068232052 4282461736
0.10237734 -0.088174462 -0.068771094 4282266414
0.10156708 -0.090252854 -0.067606039 4281937711
0.10125915 -0.092072725 -0.067290552 4281938743
0.10095061 -0.093887709 -0.066973381 4281807157
0.1001373 -0.095941626 -0.065799959 4281807159
0.099322811 -0.097985752 -0.064623237 4281741366
0.099011831 -0.099781148 -0.064299375 4282134839
0.09870021 -0.10157168 -0.063973792 4282529334
0.098893359 -0.10312326 -0.064504467 4282595127
0.09858086 -0.10490642 -0.064176418 4282594096
0.098267749 -0.1066847 -0.0638467 4282988854
0.098460287 -0.1082314 -0.064375699 4282726195
0.098146267 -0.11000233 -0.06404347 4282792504
0.0983385 -0.11154657 -0.064571626 4282726711
0.09853074 -0.11309081 -0.065099791 4282791734
0.099230446 -0.11441816 -0.066491693 4284896077
0.099422991 -0.11596485 -0.067020699 4286213220
0.099615529 -0.11751153 -0.067549698 4283451200
0.10031646 -0.11884867 -0.068944946 4283648579
0.101018 -0.12019069 -0.07034187 4283056442
0.10222919 -0.12133295 -0.072608449 4283119668
0.10293225 -0.12268721 -0.07400956 4282855467
0.10414556 -0.1238466 -0.076282002 4282855467
0.10536007 -0.12501577 -0.078557737 4282527270
0.10606557 -0.12638962 -0.079965547 4281936677
0.10677169 -0.12776835 -0.081375025 4281545266
0.10747843 -0.12915199 -0.082786232 4284182380
0.11023033 -0.12979037 -0.08769425 4284248173
0.11349671 -0.13026814 -0.093485273 4282473307
0.15601778 -0.28292635 -0.18696672 4282476905
0.15569031 -0.28458956 -0.1865976 4282476905
0.15590297 -0.2862978 -0.18718185 4282476905
0.15611562 -0.28800601 -0.18776609 4282607721
0.15632826 -0.28971422 -0.18835033 4282673514
0.15654092 -0.29142243 -0.18893458 4282673514
0.15675355 -0.29313067 -0.18951882 4282673514
0.15696621 -0.29483888 -0.19010307 4282673514
0.15717885 -0.29654706 -0.19068731 4282607721
0.1573915 -0.29825529 -0.19127156 4282607721
0.15760414 -0.29996347 -0.19185579 4282607721
0.032553446 0.028401148 0.065348126 4294954446
0.032718871 0.027072268 0.064893618 4294967287
0.03335277 0.026253957 0.063674927 4294901753
0.033518501 0.024922626 0.063219585 4294901755
0.033684231 0.023591297 0.062764242 4294770683
0.033849962 0.022259973 0.0623089 4294770683
0.033546001 0.020427858 0.062621094 4294770683
0.033711426 0.019098978 0.062166594 4294770683
0.033876851 0.017770099 0.06171209 4294770683
0.033571672 0.015947778 0.062027637 4294770683
0.033736795 0.014621342 0.061573967 4294770683
0.032959457 0.012317787 0.062663794 4294770683
0.032180931 0.010024055 0.06375692 4294770683
0.031401154 0.0077400766 0.064853445 4294311929
0.030620193 0.0054659196 0.06595327 4293262833
0.030310437 0.0036803081 0.066281371 4293328626
0.030000053 0.001899563 0.066611193 4294049786
0.029216046 -0.00035012429 0.067719385 4294443006
0.028904157 -0.0021186038 0.068053342 4294574078
0.029065318 -0.0034132269 0.067610554 4294639614
0.029226478 -0.0047078431 0.067167774 4294639614
0.029861907 -0.0055383909 0.065944895 4294639614
0.030497938 -0.006373832 0.06472034 4294639614
0.031134577 -0.0072141676 0.063494109 4293980147
0.031771854 -0.0080593694 0.062266164 4291344327
0.032409716 -0.0089094928 0.06103659 4288844193
0.033523969 -0.0093126791 0.059021059 4289165965
0.034639474 -0.0097256256 0.057002135 4287716190
0.035756163 -0.010148387 0.054979909 4291396753
0.036874101 -0.01058091 0.05295429 4289422963
0.037993226 -0.011023251 0.050925367 4292979896
0.03959091 -0.011035753 0.048104588 4291011748
0.040712781 -0.01150012 0.046068132 4293181120
0.042313814 -0.011539542 0.043238144 4292588983
0.043438423 -0.012025936 0.041194156 4288168776
0.045042813 -0.012092274 0.038354963 4288364099
0.046649002 -0.012173328 0.035510793 4290940313
0.047777902 -0.012693957 0.03345504 4287650663
0.048908003 -0.013224399 0.031395987 4289167749
0.049559571 -0.014184652 0.030128745 4290880429
0.050211772 -0.015149774 0.028859779 4288383125
0.10521738 0.021663565 -0.063698053 4283705134
0.10542393 0.020004299 -0.064265557 4284621872
0.10466551 0.017549042 -0.063227676 4284883248
0.10438864 0.015499097 -0.06298992 4285014834
0.10459428 0.013847172 -0.063554913 4285080627
0.10334971 0.011023283 -0.061704293 4285080627
0.10355444 0.0093787024 -0.062266774 4285212211
0.10279112 0.0069625746 -0.061215449 4285146418
0.10299523 0.0053228876 -0.061776254 4285212211
0.10319936 0.0036831987 -0.06233706 4285080625
0.10291854 0.0016650929 -0.062088478 4285080625
0.10312235 2.7850956e-05 -0.062648445 4285080625
0.1023551 -0.0023564354 -0.061586291 4285014832
0.1025583 -0.0039887833 -0.062144585 4285014832
0.10130305 -0.0067270398 -0.060264621 4285080625
0.10150533 -0.0083520412 -0.060820404 4285080625
0.10122087 -0.010340782 -0.060561776 4285080627
0.10142285 -0.01196334 -0.061116725 4285014834
0.10113748 -0.013944737 -0.060855586 4285014834
0.10133916 -0.015564845 -0.061409697 4284883248
0.10154084 -0.017184956 -0.061963808 4284883248
0.10223079 -0.018453566 -0.063336514 4285080627
0.10292136 -0.019727074 -0.064710893 4285146420
0.10312364 -0.021352077 -0.065266676 4285343799
0.10381512 -0.022632925 -0.066643573 4285541178
0.10450722 -0.023918668 -0.068022132 4285475898
0.10471012 -0.025548566 -0.068579592 4285476666
0.10540314 -0.026841629 -0.069960721 4285410873
0.10609675 -0.028139608 -0.071343474 4284884531
0.10728168 -0.029110562 -0.07355319 4285016117
0.1074858 -0.03075025 -0.074113995 4285082169
0.10818125 -0.032062914 -0.07550177 4284755771
0.10936894 -0.033055872 -0.07771907 4282982953
0.11055784 -0.034058638 -0.079939663 4281732886
0.11224022 -0.034751493 -0.082993142 4280813835
0.11293931 -0.036093522 -0.084390953 4280355335
0.11413189 -0.03712564 -0.08662165 4280026884
0.11433936 -0.038792249 -0.087191664 4279961091
0.11504028 -0.040148962 -0.088594504 4279961091
0.11574181 -0.041510567 -0.089999013 4279764995
0.11594988 -0.043182068 -0.090570703 4279699715
0.11665233 -0.044551019 -0.09197773 4279701001
0.11587137 -0.046825182 -0.090877905 4279898380
0.11558416 -0.048791897 -0.090611741 4280228376
0.11430576 -0.051344156 -0.088668168 4280427038
0.11352114 -0.053588953 -0.087558299 4280295450
0.11174348 -0.056404609 -0.084765993 4281476628
0.11095579 -0.058624946 -0.083647698 4283118364
0.1096704 -0.061120905 -0.081684925 4283776294
0.10788635 -0.063885167 -0.078875035 4284036634
0.10659698 -0.06634932 -0.076901324 4284756761
0.10530577 -0.068798795 -0.074922584 4284952857
0.10451049 -0.070957929 -0.07378342 4284952343
0.10421202 -0.072834097 -0.073486291 4285018136
0.10341457 -0.074976124 -0.072341219 4285149209
0.1036132 -0.076571755 -0.072886959 4285083416
0.10331289 -0.078433245 -0.072584808 4285346588
0.10301198 -0.080289826 -0.072280981 4285150236
0.10271046 -0.082141519 -0.071975484 4284430111
0.1024083 -0.083988331 -0.07166826 4284298525
0.1016054 -0.086086288 -0.070508167 4283578915
0.10130174 -0.087920852 -0.070196807 4283383340
0.10049668 -0.090001695 -0.069030814 4283318319
0.1001915 -0.091824017 -0.068715267 4283384373
0.099885717 -0.093641445 -0.068398051 4283581752
0.098575927 -0.095941626 -0.066368252 4283319350
0.098268308 -0.097744375 -0.066046014 4283516729
0.097960077 -0.09954223 -0.0657221 4283648315
0.097148627 -0.10157168 -0.064538524 4284108866
0.097341776 -0.10312326 -0.065069199 4284108866
0.09703172 -0.10490642 -0.064740263 4284765765
0.097224563 -0.10645557 -0.065270096 4285027906
0.096913591 -0.1082314 -0.06493865 4285355333
0.097106129 -0.10977809 -0.065467648 4285553482
0.097298667 -0.11132477 -0.065996647 4286671963
0.097491212 -0.11287147 -0.066525646 4290421394
0.098188788 -0.11420126 -0.067919277 4289039482
0.098886967 -0.11553594 -0.069314584 4287989104
0.099080116 -0.11708753 -0.069845259 4285227081
0.10028518 -0.11821999 -0.072110273 4285095495
0.10149144 -0.11936225 -0.07437858 4283649081
0.10219239 -0.12071896 -0.075781472 4282793008
0.10340079 -0.12187834 -0.078055635 4282465586
0.10511759 -0.12284774 -0.081203692 4282991930
0.10632873 -0.12402916 -0.083485395 4280887071
0.10754107 -0.12522037 -0.085770443 4280952097
0.10875467 -0.12642135 -0.088058889 4280887846
0.10996946 -0.12763214 -0.090350635 4280624674
0.11271156 -0.1282901 -0.095269814 4283787368
0.11647471 -0.12860237 -0.10194844 4283328614
0.15409417 -0.28121567 -0.18700427 4282673514
0.15430713 -0.28292635 -0.18758935 4282607721
0.1539821 -0.28458956 -0.18721934 4282542698
0.15419476 -0.2862978 -0.18780358 4282542698
0.15386885 -0.2879537 -0.18743113 4282607721
0.1540812 -0.28965947 -0.18801454 4282673514
0.15429354 -0.29136524 -0.18859793 4282607721
0.15450588 -0.293071 -0.18918134 4282607721
0.15471824 -0.29477677 -0.18976475 4282673514
0.15493058 -0.29648253 -0.19034816 4282607721
0.15514292 -0.2981883 -0.19093156 4282607721
0.15535526 -0.29989406 -0.19151497 4282607721
0.03059403 0.029212119 0.066081524 4289090130
0.030759152 0.027885683 0.065627858 4294959842
0.030924272 0.026559252 0.065174192 4294967285
0.031555418 0.025743388 0.063955441 4294901753
0.031720843 0.024414506 0.063500941 4294901755
0.031886268 0.023085618 0.063046433 4294770683
0.032051694 0.021756746 0.062591933 4294770683
0.031749882 0.019927075 0.062905855 4294770683
0.031915002 0.018600645 0.06245219 4294770683
0.032080121 0.017274216 0.061998524 4294770683
0.031777058 0.015454305 0.06231584 4294770683
0.031473409 0.01363933 0.062634788 4294770683
0.03116915 0.011829242 0.062955409 4294770683
0.029926112 0.0090518314 0.064824656 4294770683
0.029150654 0.0067727743 0.065924585 4294377466
0.028843652 0.0049847192 0.066252738 4293787638
0.028536018 0.0032015236 0.066582613 4294377467
0.028227806 0.0014232561 0.066914119 4294377467
0.02744838 -0.00082398765 0.068024926 4294574075
0.02760954 -0.0021186038 0.067582145 4294639611
0.027299467 -0.003882217 0.06791871 4294639611
0.027931862 -0.0047078431 0.066696569 4294639611
0.028564841 -0.0055383909 0.065472797 4294639611
0.028726306 -0.0068354574 0.065029174 4294574077
0.029360197 -0.0076733422 0.063802898 4290493123
0.029994693 -0.0085161282 0.062574938 4291408835
0.031102864 -0.0089094928 0.060560934 4288974494
0.031738881 -0.0097645167 0.059328791 4288702070
0.03332283 -0.0097256256 0.056522917 4288698200
0.034434624 -0.010148387 0.054498907 4289614682
0.03554767 -0.01058091 0.052471507 4289943647
0.036661904 -0.011023251 0.050440807 4290480014
0.038252242 -0.011035753 0.047617353 4290095794
0.039369218 -0.01150012 0.045579117 4292062903
0.040962908 -0.011539542 0.042746454 4288378495
0.042082634 -0.012025936 0.040700689 4287642954
0.043679673 -0.012092274 0.037858821 4288835964
0.045278519 -0.012173328 0.035011981 4289169041
0.046879217 -0.01226904 0.032160066 4290616487
0.047527723 -0.013224399 0.030893607 4288774534
0.048176851 -0.014184652 0.029625475 4291079091
0.048826609 -0.015149774 0.028355621 4283514445
0.049954854 -0.015704688 0.026286416 4281541420
0.10499644 0.022872264 -0.066707753 4283772469
0.10472414 0.020805188 -0.066474974 4284885044
0.10445126 0.018743031 -0.066240564 4285146933
0.10417778 0.016685767 -0.066004485 4285278004
0.10390368 0.0146334 -0.065766729 4285212211
0.103148 0.012195247 -0.064721152 4285408820
0.10335364 0.010543321 -0.065286145 4285474613
0.10259615 0.0081198774 -0.064235598 4285606199
0.10231932 0.0060895351 -0.06399031 4285474613
0.10204184 0.0040640645 -0.063743301 4285408820
0.10176378 0.0020435099 -0.063494667 4285408820
0.1019679 0.00040382278 -0.064055473 4285277234
0.10120584 -0.0019829106 -0.062992364 4285343027
0.10092596 -0.0039887833 -0.062738709 4285277234
0.10064544 -0.0059897811 -0.062483329 4285343027
0.099880338 -0.0083520412 -0.061411854 4285343029
0.10008262 -0.0099770473 -0.061967641 4285277236
0.099800304 -0.01196334 -0.061707288 4285277236
0.099517375 -0.013944737 -0.061445255 4285277236
0.099719055 -0.015564845 -0.061999366 4285277236
0.099920735 -0.017184956 -0.062553473 4285277236
0.10060824 -0.018453566 -0.063927077 4285408822
0.10081022 -0.020076124 -0.064482018 4285475385
0.10149865 -0.021352077 -0.065858133 4285541691
0.10170093 -0.022977082 -0.066413917 4285607484
0.10239027 -0.024260376 -0.067792535 4285673277
0.10308021 -0.025548566 -0.069172829 4285607484
0.1037708 -0.026841629 -0.070554845 4285345082
0.103974 -0.028473977 -0.071113139 4285016630
0.10515373 -0.029442482 -0.073323801 4285214009
0.10633469 -0.030420776 -0.075537808 4284623156
0.10702801 -0.031735867 -0.076927356 4283705393
0.10870028 -0.032406714 -0.079975925 4282589994
0.10988491 -0.033414356 -0.082200028 4281734685
0.11156053 -0.034112126 -0.085257798 4280551692
0.11274792 -0.035141792 -0.087489434 4280158472
0.11393648 -0.036181271 -0.089724369 4279961606
0.11414486 -0.037855219 -0.090296894 4279895813
0.11484428 -0.039219256 -0.091703184 4279895813
0.11554427 -0.040588208 -0.093111105 4279633922
0.11624488 -0.04196205 -0.094520688 4279372034
0.11645418 -0.04364334 -0.095095724 4279569674
0.11617125 -0.04562474 -0.094833702 4279701260
0.11539515 -0.047898922 -0.093732044 4279966234
0.11461786 -0.050163295 -0.092627093 4280164640
0.11383933 -0.052417897 -0.091518737 4280361502
0.11256616 -0.054953005 -0.089566678 4281280281
0.11129113 -0.057473451 -0.087609544 4283973673
0.11001427 -0.059979212 -0.085647389 4284368431
0.10824126 -0.062753245 -0.082837343 4286338873
0.10696045 -0.065227188 -0.080864303 4286863670
0.10518283 -0.067964531 -0.078041643 4287386671
0.10439336 -0.070131019 -0.076903209 4287779376
0.10360264 -0.072287723 -0.075761385 4287779376
0.10330661 -0.074163891 -0.075463362 4288173105
0.10300997 -0.076035157 -0.075163662 4288171822
0.10320921 -0.077635691 -0.075711079 4288171824
0.10241484 -0.079763032 -0.074559204 4287778095
0.10261347 -0.081358671 -0.075104944 4287712302
0.10181729 -0.083471313 -0.0739481 4286271020
0.10101987 -0.08557418 -0.072787851 4285223990
0.10022125 -0.087667242 -0.071624309 4284569149
0.099919744 -0.089499362 -0.071311221 4284438597
0.099118963 -0.091575302 -0.070141762 4284833355
0.098815925 -0.093395181 -0.069824494 4284833355
0.098013043 -0.095453978 -0.068649232 4285030736
0.097208925 -0.097503006 -0.067470565 4285359187
0.096403606 -0.09954223 -0.066288613 4285753175
0.095597044 -0.10157168 -0.065103255 4285818964
0.095790192 -0.10312326 -0.065633923 4285950550
0.095983341 -0.10467485 -0.066164598 4286803801
0.095675424 -0.10645557 -0.065833934 4287982161
0.095868267 -0.10800471 -0.066363774 4287129168
0.096061118 -0.10955385 -0.066893607 4289369210
0.096253961 -0.11110298 -0.067423448 4291671965
0.096446805 -0.11265212 -0.067953281 4288579183
0.097142234 -0.11398435 -0.069348641 4289106808
0.097838305 -0.11532148 -0.070745729 4288910722
0.098534949 -0.11666351 -0.072144434 4284503874
0.099735707 -0.11780088 -0.074412853 4285688148
0.1009377 -0.11894802 -0.076684669 4283122739
0.102645 -0.1199003 -0.079829484 4282661934
0.10435417 -0.12086725 -0.082979381 4282993470
0.1055604 -0.12204868 -0.085262857 4281546024
0.10777793 -0.12284523 -0.08929418 4280624417
0.10898724 -0.1240511 -0.091586083 4280755231
0.11070338 -0.12507436 -0.09475518 4280625444
0.11191543 -0.12630226 -0.097054616 4280625444
0.11515367 -0.12678982 -0.10285967 4283984234
0.11940867 -0.12693658 -0.11042763 4283262821
0.15217057 -0.27950501 -0.18704182 4282673514
0.15238352 -0.28121567 -0.1876269 4282673514
0.15206125 -0.28288138 -0.18725684 4282607721
0.15227391 -0.28458956 -0.18784107 4282607721
0.15248655 -0.2862978 -0.18842532 4282607721
0.1521631 -0.2879537 -0.18805197 4282607721
0.15237544 -0.28965947 -0.18863538 4282607721
0.15205108 -0.29130805 -0.18825951 4282607721
0.15226312 -0.29301137 -0.18884209 4282607721
0.15247515 -0.29471469 -0.18942465 4282607721
0.15268719 -0.29641801 -0.19000722 4282607721
0.15289924 -0.29812133 -0.1905898 4282607721
0.15311126 -0.29982466 -0.19117236 4282607721
0.028804896 0.028694177 0.066362247 4294889674
0.028969714 0.027370183 0.065909415 4294963434
0.029597828 0.026559252 0.064691409 4294901751
0.02976295 0.025232816 0.064237736 4294901753
0.029928071 0.023906386 0.06378407 4294901755
0.030093193 0.022579942 0.063330404 4294901755
0.030258315 0.021253511 0.062876739 4294901755
0.030423436 0.019927075 0.062423069 4294770683
0.030588558 0.018600645 0.061969403 4294770683
0.030288247 0.0167783 0.062286779 4294770683
0.030453064 0.015454305 0.061833944 4294770683
0.029685849 0.013148335 0.062926456 4294770683
0.028917385 0.010852125 0.064022355 4294770683
0.028147733 0.0085657304 0.065121554 4294705146
0.027376864 0.0062891231 0.066224106 4294180859
0.027071983 0.0045034839 0.066554032 4293918712
0.026298974 0.0022440089 0.06766244 4294443003
0.025992595 0.00047063551 0.067996509 4294443003
0.025685584 -0.0012978785 0.0683323 4294574075
0.025846438 -0.0025900442 0.067890354 4294639611
0.026007295 -0.003882217 0.0674484 4294639611
0.026168153 -0.0051743896 0.067006454 4294639611
0.026798401 -0.0060024662 0.065782577 4294639611
0.027429232 -0.0068354574 0.064557083 4293587182
0.02806068 -0.0076733422 0.063329913 4288782503
0.028692732 -0.0085161282 0.062101066 4291736771
0.029796002 -0.0089094928 0.060085274 4288973465
0.030429577 -0.0097645167 0.05885224 4288963958
0.032006182 -0.0097256256 0.056043696 4288107607
0.033113081 -0.010148387 0.054017905 4288895583
0.034221228 -0.01058091 0.051988725 4288566618
0.035330568 -0.011023251 0.04995624 4291934905
0.03691357 -0.011035753 0.047130115 4291150274
0.038025647 -0.01150012 0.045090098 4290941080
0.039612003 -0.011539542 0.042254765 4287519844
0.040726826 -0.012025936 0.040207215 4289487984
0.042790156 -0.011662466 0.036569081 4290156708
0.04390803 -0.012173328 0.034513164 4287590009
0.045501385 -0.01226904 0.031658579 4290287522
0.046147447 -0.013224399 0.030391227 4286931817
0.046794124 -0.014184652 0.029122204 4290421677
0.047441438 -0.015149774 0.027851461 4282001206
0.048564792 -0.015704688 0.025780473 4281475625
0.10305998 0.020805188 -0.067080677 4284624185
0.10326714 0.019141026 -0.067649856 4285214009
0.1034743 0.017476868 -0.068219028 4285541689
0.10272506 0.0150265 -0.06717591 4285541689
0.10245311 0.012976581 -0.066936426 4285804348
0.10218054 0.010931552 -0.066695273 4286198336
0.10190735 0.0088913999 -0.066452391 4286067520
0.10211299 0.0072394744 -0.067017384 4286199619
0.1018389 0.0052066837 -0.066772036 4286068033
0.10108418 0.0028003696 -0.065713853 4285739068
0.10128891 0.0011557868 -0.066276334 4285804350
0.10053232 -0.0012358642 -0.065213077 4285672762
0.1002555 -0.0032466294 -0.064960204 4285737785
0.099496812 -0.0056211296 -0.063891135 4285737785
0.098736882 -0.007985861 -0.062818669 4285606969
0.09845762 -0.0099770473 -0.062559091 4285475383
0.09865991 -0.011602052 -0.063114882 4285475383
0.098379724 -0.013585896 -0.0628528 4285606969
0.098098934 -0.015564845 -0.062589042 4285606969
0.098300613 -0.017184956 -0.063143149 4285475385
0.098502293 -0.018805066 -0.063697264 4285804350
0.098703973 -0.020425174 -0.064251371 4285542461
0.098905653 -0.022045285 -0.064805478 4285608254
0.099107333 -0.023665395 -0.065359592 4285476668
0.099309012 -0.025285505 -0.0659137 4285279289
0.099995598 -0.026566353 -0.067292377 4285279289
0.1006828 -0.027852094 -0.068672717 4285214009
0.10234165 -0.028473977 -0.071707264 4284624187
0.10303067 -0.029774403 -0.073092632 4284163636
0.10420642 -0.03075025 -0.075307593 4283047982
0.10586985 -0.031408843 -0.078354686 4282918957
0.10753511 -0.032082118 -0.081406817 4282393896
0.10871512 -0.033092227 -0.083633482 4281209622
0.11038373 -0.033792421 -0.086694814 4280485899
0.11205414 -0.034507319 -0.089761116 4279961606
0.11372641 -0.035236884 -0.092832491 4279764997
0.1139357 -0.036918174 -0.093407527 4279764997
0.114145 -0.038599469 -0.093982562 4279764997
0.11533202 -0.039665867 -0.096228488 4279633924
0.11603112 -0.041047033 -0.097641528 4279372036
0.11575183 -0.043038234 -0.097381905 4279307272
0.11547196 -0.045024529 -0.097120658 4279570444
0.11519147 -0.047005925 -0.096857741 4279900441
0.11442 -0.049277645 -0.095753521 4280164640
0.11364727 -0.051539585 -0.094645895 4280230433
0.11238233 -0.054082055 -0.092693619 4281017370
0.11111558 -0.056609824 -0.090736382 4284368692
0.10984699 -0.059122927 -0.088774063 4284829243
0.10808464 -0.061904322 -0.085962906 4286404666
0.10681211 -0.064385593 -0.083989762 4287061309
0.10553773 -0.066852197 -0.082011543 4287585593
0.10426151 -0.069304116 -0.080028303 4287911732
0.10347663 -0.071468152 -0.078887247 4287977525
0.10318396 -0.073351659 -0.078590848 4288436277
0.10289065 -0.075230286 -0.07829272 4288828982
0.10259676 -0.077104002 -0.077992976 4288763189
0.10230227 -0.078972824 -0.077691555 4288435507
0.10151251 -0.081097707 -0.07653711 4288303921
0.10121647 -0.08295431 -0.07623145 4286665778
0.10042457 -0.085062057 -0.075071149 4285618494
0.099631429 -0.087160029 -0.073907442 4284898116
0.0988371 -0.089248195 -0.072740443 4284899148
0.098041557 -0.091326579 -0.071570098 4285293906
0.097244754 -0.093395181 -0.070396349 4285425492
0.096446775 -0.095453978 -0.069219306 4285622357
0.095150456 -0.097744375 -0.06718082 4285818966
0.09484712 -0.09954223 -0.066855125 4286015832
0.094045453 -0.10157168 -0.065667987 4286015830
0.094238602 -0.10312326 -0.066198662 4286015830
0.09443175 -0.10467485 -0.066729337 4286802772
0.094624899 -0.10622644 -0.067260005 4288378454
0.094319128 -0.10800471 -0.066927612 4292261011
0.095011197 -0.10932961 -0.068321355 4289301871
0.095204346 -0.11088119 -0.068852022 4290091387
0.095397495 -0.11243277 -0.069382697 4290487943
0.096590951 -0.11355054 -0.071646251 4287133280
0.097285151 -0.11489258 -0.07304585 4284305214
0.098981477 -0.11581548 -0.076183349 4284173628
0.10017855 -0.11696263 -0.078456894 4283714360
0.10137688 -0.11811957 -0.080733843 4283057459
0.1025764 -0.1192863 -0.083014086 4283914826
0.1047811 -0.12005838 -0.087040596 4280690465
0.10648596 -0.12104981 -0.090201534 4280690465
0.10869518 -0.1218586 -0.094240546 4280427038
0.11040401 -0.12288185 -0.09741237 4280492829
0.11211465 -0.12391977 -0.10058921 4280624674
0.11382711 -0.1249724 -0.10377102 4280822053
0.11705282 -0.12547708 -0.10958733 4284443242
0.12179448 -0.12545589 -0.11804557 4282143567
0.12704602 -0.1252961 -0.127397 4281156672
0.1504599 -0.27950501 -0.18766445 4282673514
0.15014039 -0.28117314 -0.18729433 4282673514
0.15035303 -0.28288138 -0.18787858 4282673514
0.15003264 -0.28454217 -0.18750601 4282607721
0.15024498 -0.28624794 -0.18808942 4282607721
0.14992368 -0.28790143 -0.18771434 4282673514
0.15013571 -0.28960472 -0.1882969 4282673514
0.15034775 -0.29130805 -0.18887947 4282607721
0.1505598 -0.29301137 -0.18946204 4282607721
0.15023696 -0.29465258 -0.18908277 4282607721
0.15044869 -0.29635343 -0.1896645 4282673514
0.15066043 -0.29805434 -0.19024624 4282673514
0.15087217 -0.29975522 -0.19082798 4282607721
0.027020697 0.028176269 0.066644713 4294964716
0.027185209 0.026854718 0.066192716 4294901753
0.027810544 0.026046203 0.064974695 4294901753
0.027975362 0.024722211 0.064521864 4294901753
0.028601641 0.023906386 0.063301295 4294901755
0.028766764 0.022579942 0.062847622 4294901755
0.028931884 0.021253511 0.062393956 4294901755
0.029097006 0.019927075 0.061940286 4294901755
0.028799444 0.018102279 0.062257715 4294770683
0.028964261 0.0167783 0.061804887 4294770683
0.028665816 0.014960866 0.062124778 4294770683
0.027903192 0.012657346 0.063219905 4294770683
0.027603192 0.010852125 0.063544028 4294770683
0.026374253 0.0080796359 0.06542024 4294639353
0.026072459 0.0062891231 0.06574934 4293984250
0.025305232 0.0040222835 0.06685707 4294115321
0.024536818 0.0017652517 0.067968093 4294443003
0.024232561 -5.6986983e-06 0.068303935 4294443003
0.024393419 -0.0012978785 0.067861989 4294574075
0.024088264 -0.0030614571 0.068200298 4294639611
0.024248816 -0.0043511866 0.067759179 4294639611
0.024875985 -0.0051743896 0.066536143 4294639611
0.025036842 -0.0064665624 0.06609419 4294639611
0.026132172 -0.0068354574 0.064084992 4289310120
0.026761163 -0.0076733422 0.062856928 4288645517
0.027390771 -0.0085161282 0.061627191 4292982727
0.028489148 -0.0089094928 0.059609618 4289627284
0.029120279 -0.0097645167 0.058375698 4288963705
0.030220762 -0.01017504 0.056352314 4293051849
0.031791545 -0.010148387 0.053536907 4290499007
0.032894798 -0.01058091 0.051505942 4290301628
0.033999242 -0.011023251 0.049471676 4287409553
0.035574902 -0.011035753 0.046642881 4289117604
0.036682088 -0.01150012 0.044601079 4287325541
0.038261097 -0.011539542 0.041763075 4287259748
0.039841909 -0.011593677 0.038920097 4291405490
0.041424572 -0.011662466 0.036072049 4290884026
0.043009058 -0.011745939 0.033218976 4288183167
0.043651767 -0.012693957 0.031953249 4291670196
0.044767179 -0.013224399 0.029888852 4288642948
0.0454114 -0.014184652 0.028618935 4286606714
0.046056267 -0.015149774 0.0273473 4281343789
0.047174726 -0.015704688 0.025274532 4280950049
0.04782109 -0.016682073 0.02399876 4281015842
0.098092265 -0.028525723 -0.06761159 4285082683
0.09974315 -0.029142732 -0.070647083 4283573043
