# .PCD v0.7 - Point Cloud Data file format
VERSION 0.7
FIELDS x y z rgb
SIZE 4 4 4 4
TYPE F F F U
COUNT 1 1 1 1
WIDTH 1023
HEIGHT 1
VIEWPOINT 0 0 0 1 0 0 0
POINTS 1023
DATA ascii
0.016235663 -0.27259645 -0.18239585 4281947483
0.015941806 -0.27135366 -0.18338095 4282342241
0.015941806 -0.26955962 -0.18338095 4282605926
0.015647953 -0.268309 -0.18436597 4282475623
0.015354101 -0.26705316 -0.185351 4282475623
0.015647953 -0.26471564 -0.18436597 4282410344
0.015647953 -0.26291898 -0.18436597 4282607723
0.015354101 -0.26165536 -0.185351 4282607723
0.015354101 -0.2598561 -0.185351 4282673516
0.015354101 -0.25805685 -0.185351 4282673516
0.015354101 -0.25625759 -0.185351 4282739309
0.015647953 -0.25393572 -0.18436597 4282673516
0.015647953 -0.25213909 -0.18436597 4282673516
0.015941806 -0.249825 -0.18338095 4282673516
0.015941806 -0.24803093 -0.18338095 4282739309
0.015941806 -0.24623686 -0.18338095 4282739309
0.015941806 -0.24444282 -0.18338095 4282739307
0.015941806 -0.24264875 -0.18338095 4282805100
0.016235663 -0.24035028 -0.18239585 4282739307
0.016235663 -0.2385588 -0.18239585 4282805100
0.016235663 -0.23676735 -0.18239585 4282805100
0.016235663 -0.2349759 -0.18239585 4282870895
0.016235663 -0.23318443 -0.18239585 4282870895
0.016235663 -0.23139298 -0.18239585 4282805102
0.016235663 -0.22960153 -0.18239585 4282805102
0.016235663 -0.22781006 -0.18239585 4282870895
0.015941806 -0.22650227 -0.18338095 4282936688
0.015941806 -0.2247082 -0.18338095 4282870895
0.015941806 -0.22291416 -0.18338095 4282936688
0.015647953 -0.22159591 -0.18436597 4282936688
0.015647953 -0.21979925 -0.18436597 4282870895
0.015647953 -0.21800262 -0.18436597 4282936688
0.015647953 -0.21620595 -0.18436597 4282870895
0.015354101 -0.21487471 -0.185351 4283068274
0.015354101 -0.21307546 -0.185351 4282805618
0.015354101 -0.2112762 -0.185351 4282937204
0.015647953 -0.20901933 -0.18436597 4282937204
0.015647953 -0.20722267 -0.18436597 4282937204
0.015941806 -0.20497358 -0.18338095 4282937204
0.015941806 -0.20317954 -0.18338095 4283002997
0.015941806 -0.2013855 -0.18338095 4283002997
0.015941806 -0.19959143 -0.18338095 4283002997
0.015941806 -0.19779736 -0.18338095 4283068790
0.016235663 -0.19556388 -0.18239585 4283068790
0.016235663 -0.19377241 -0.18239585 4283199606
0.016235663 -0.19198096 -0.18239585 4283133813
0.016235663 -0.19018948 -0.18239585 4283133813
0.016235663 -0.18839803 -0.18239585 4283068790
0.015941806 -0.18703303 -0.18338095 4283002997
0.015941806 -0.18523899 -0.18338095 4283002997
0.015941806 -0.18344495 -0.18338095 4283002997
0.015941806 -0.18165088 -0.18338095 4283068790
0.015941806 -0.17985681 -0.18338095 4283003510
0.015941806 -0.17806277 -0.18338095 4283003510
0.015941806 -0.1762687 -0.18338095 4283003510
0.015941806 -0.17447463 -0.18338095 4283003510
0.015941806 -0.17268059 -0.18338095 4283003510
0.015941806 -0.17088655 -0.18338095 4283134837
0.016235663 -0.16869205 -0.18239585 4283199860
0.016529515 -0.16650274 -0.18141082 4283199860
0.016529515 -0.16471389 -0.18141082 4283134067
0.016529515 -0.16292506 -0.18141082 4283069044
0.016529515 -0.16113621 -0.18141082 4283069044
0.016529515 -0.15934736 -0.18141082 4283068790
0.016823368 -0.15717366 -0.18042578 4283068790
0.016529515 -0.15576962 -0.18141082 4283003510
0.016529515 -0.15398079 -0.18141082 4283069303
0.016529515 -0.15219194 -0.18141082 4283003510
0.016529515 -0.15040305 -0.18141082 4283003510
0.016235663 -0.14898601 -0.18239585 4283068790
0.016235663 -0.14719456 -0.18239585 4283068790
0.016235663 -0.14540312 -0.18239585 4282805618
0.016235663 -0.14361167 -0.18239585 4282739825
0.016235663 -0.14182019 -0.18239585 4282739825
0.016235663 -0.14002874 -0.18239585 4282608239
0.016235663 -0.1382373 -0.18239585 4282608239
0.016235663 -0.13644585 -0.18239585 4282345067
0.016235663 -0.13465437 -0.18239585 4282213481
0.016529515 -0.13251451 -0.18141082 4282081895
0.016529515 -0.13072565 -0.18141082 4281884770
0.016823368 -0.12859358 -0.18042578 4281884770
0.016823368 -0.12680732 -0.18042578 4282016356
0.017411061 -0.12434503 -0.17845571 4281884770
0.017998781 -0.12189312 -0.1764856 4281884770
0.018292621 -0.11978446 -0.17550056 4282015586
0.018586474 -0.11768098 -0.17451553 4281949793
0.088817216 -0.0088778622 0.060910188 4285435795
0.089111075 -0.0028820601 0.061895248 4289317832
0.089111075 -0.0017354158 0.061895248 4289317832
0.089111075 -0.00058878626 0.061895248 4288133306
0.088817216 0.00031602712 0.060910188 4287147178
0.088523366 0.0035297158 0.059925154 4284581251
0.088229507 0.0044501307 0.058940094 4283989114
0.087935656 0.0065327841 0.05795506 4284646529
0.089404918 0.017960194 0.062880278 4287212717
0.089111075 0.020050656 0.061895248 4287278512
0.087935656 0.022731293 0.05795506 4285235595
0.085290983 0.023383807 0.049089655 4285691776
0.083527878 0.023472149 0.043179404 4283840829
0.080883205 0.02427287 0.034313999 4284506208
0.079707794 0.024795432 0.030373812 4283654249
0.078532383 0.02533881 0.026433622 4281022529
0.077650823 0.026071992 0.023478501 4279376931
0.077356972 0.027153615 0.022493437 4279311136
0.076475419 0.027912807 0.019538309 4279245341
0.075300001 0.028526377 0.015598124 4279179548
0.074418448 0.029319372 0.012642998 4279245341
0.073243037 0.029971946 0.0087028118 4279311134
0.071773782 0.030491907 0.0037776222 4279245341
0.070892222 0.0313395 0.00082246616 4279377181
0.070010655 0.032202687 -0.0021326861 4279377181
0.069129109 0.033081491 -0.0050877831 4279311901
0.068541393 0.034118887 -0.0070579057 4279443487
0.068247549 0.035307113 -0.008042939 4278851612
0.067953698 0.036500547 -0.0090279728 4279316794
0.067659847 0.037699167 -0.010013003 4283860104
0.067365982 0.038902994 -0.010998095 4283004795
0.067365982 0.040242035 -0.010998095 4284714382
0.067072131 0.041453663 -0.011983125 4288064435
0.066778287 0.042670485 -0.012968158 4279770667
0.066778287 0.044014733 -0.012968158 4279310116
0.067072131 0.045478586 -0.011983125 4279573540
0.024169676 0.03489979 -0.15579969 4278982169
0.024169676 0.036621045 -0.15579969 4279047962
0.023875823 0.038238283 -0.15678471 4279047962
0.023875823 0.039962139 -0.15678471 4278982936
0.02358197 0.041587178 -0.15776975 4278982936
0.02358197 0.043313626 -0.15776975 4278982936
0.02358197 0.045040082 -0.15776975 4278917143
0.02358197 0.046766534 -0.15776975 4278917143
0.02358197 0.04849299 -0.15776975 4278917143
0.02358197 0.050219443 -0.15776975 4278851350
0.02358197 0.051945895 -0.15776975 4278851350
0.02358197 0.053672351 -0.15776975 4278851350
0.02358197 0.055398803 -0.15776975 4278785557
0.02358197 0.057125259 -0.15776975 4278785557
0.02358197 0.058851711 -0.15776975 4278785557
0.02358197 0.060578167 -0.15776975 4278785557
0.02358197 0.06230462 -0.15776975 4278785557
0.02358197 0.064031072 -0.15776975 4278851350
0.02358197 0.065757528 -0.15776975 4278851350
0.02358197 0.067483976 -0.15776975 4278785557
0.022994278 0.069096006 -0.15973982 4278851350
0.022994278 0.070827663 -0.15973982 4278851350
0.023288118 0.072611324 -0.15875478 4278916889
0.02358197 0.074389793 -0.15776975 4279708204
0.02358197 0.076116249 -0.15776975 4279971376
0.02358197 0.077842705 -0.15776975 4280235318
0.025638945 0.081568696 -0.15087441 4280367931
0.050616395 0.093808249 -0.067145623 4281734420
0.050616395 0.095295496 -0.067145623 4285476398
0.050616395 0.096782744 -0.067145623 4286196780
0.050322555 0.098254375 -0.068130657 4286722354
0.050322555 0.099744223 -0.068130657 4287446075
0.050322555 0.10123407 -0.068130657 4287446075
0.050322555 0.10272391 -0.068130657 4287643454
0.050322555 0.10421376 -0.068130657 4287643454
0.050322555 0.10570361 -0.068130657 4287840063
0.050322555 0.10719346 -0.068130657 4287840063
0.0500287 0.10868589 -0.069115691 4288037185
0.0500287 0.11017834 -0.069115691 4288233794
0.0500287 0.11167078 -0.069115691 4288233794
0.0500287 0.11316323 -0.069115691 4288299074
0.0500287 0.11465567 -0.069115691 4288430660
0.0500287 0.11614812 -0.069115691 4288496453
0.0500287 0.11764056 -0.069115691 4288496453
0.0500287 0.11913301 -0.069115691 4288496453
0.0500287 0.12062546 -0.069115691 4288496453
0.0500287 0.12211791 -0.069115691 4288430660
0.0500287 0.12361035 -0.069115691 4288759625
0.0500287 0.1251028 -0.069115691 4288759625
0.0500287 0.12659524 -0.069115691 4288957004
0.0500287 0.12808768 -0.069115691 4289022797
0.0500287 0.12958014 -0.069115691 4288824902
0.0500287 0.13107258 -0.069115691 4289087820
0.0500287 0.13256502 -0.069115691 4289219660
0.0500287 0.13405748 -0.069115691 4289219660
0.0500287 0.13554992 -0.069115691 4289219660
0.050322555 0.13699038 -0.068130657 4289220176
0.050322555 0.13848022 -0.068130657 4289351762
0.050322555 0.13997006 -0.068130657 4289154896
0.050322555 0.14145991 -0.068130657 4289089103
0.0500287 0.14301215 -0.069115691 4289089103
0.0500287 0.14450459 -0.069115691 4288826701
0.0500287 0.14599705 -0.069115691 4288234823
0.0500287 0.14748949 -0.069115691 4287644226
0.049440991 0.14912751 -0.071085818 4287446847
0.049440991 0.15062517 -0.071085818 4284031782
0.04914714 0.1522008 -0.072070844 4282003764
0.04914714 0.15370105 -0.072070844 4280958010
0.048853286 0.15528449 -0.073055878 4280630074
0.048853286 0.15678734 -0.073055878 4280630074
0.04914714 0.1582018 -0.072070844 4280564281
0.04914714 0.15970203 -0.072070844 4281155652
0.049734831 0.16101509 -0.070100777 4283591790
0.050322555 0.16231777 -0.068130657 4284381822
0.050616395 0.16370882 -0.067145623 4284250236
0.050910246 0.16509467 -0.066160597 4284908679
0.051791809 0.16626734 -0.063205436 4285041548
0.053261075 0.16721123 -0.058280222 4285041548
0.072949186 0.1768349 0.0077177784 4283858558
0.072655335 0.17826752 0.0067327488 4281629050
0.073243037 0.17926858 0.0087028118 4279071350
0.073243037 0.18055563 0.0087028118 4279268729
0.073243037 0.18184267 0.0087028118 4281037947
0.073243037 0.1831297 0.0087028118 4281820521
0.072949186 0.18457274 0.0077177784 4282670172
0.072655335 0.18602097 0.0067327488 4282931030
0.072949186 0.18715201 0.0077177784 4282799444
0.072949186 0.18844165 0.0077177784 4282800727
0.072949186 0.1897313 0.0077177784 4283195233
0.072949186 0.19102094 0.0077177784 4284247408
0.072949186 0.19231057 0.0077177784 4284510580
0.072949186 0.19360022 0.0077177784 4283783775
0.072949186 0.19488986 0.0077177784 4283648591
0.073243037 0.1960001 0.0087028118 4283975759
0.073243037 0.19728714 0.0087028118 4284172625
0.073243037 0.19857419 0.0087028118 4284041039
0.073536888 0.19967403 0.0096878754 4284500305
0.073536888 0.20095848 0.0096878754 4285427053
0.073536888 0.20224291 0.0096878754 4284903019
0.073536888 0.20352735 0.0096878754 4284506978
0.073536888 0.20481178 0.0096878754 4284704357
0.073830739 0.20589603 0.010672905 4284374622
0.073830739 0.20717788 0.010672905 4284176988
0.073830739 0.20845971 0.010672905 4283914073
0.073830739 0.20974156 0.010672905 4284115822
0.073830739 0.21102339 0.010672905 4284773752
0.074124597 0.21209204 0.011657968 4283521888
0.014766409 0.2623753 -0.18732107 4283582800
0.014766409 0.26417974 -0.18732107 4283451214
0.014766409 0.26598421 -0.18732107 4283322706
0.01447254 0.26802006 -0.18830615 4282734421
0.01447254 0.26982713 -0.18830615 4282472791
0.0141787 0.27187076 -0.18929119 4282145112
0.013884847 0.27391961 -0.19027622 4282079319
0.0141787 0.27549008 -0.18929119 4282079834
0.0141787 0.27729973 -0.18929119 4281751639
0.013884847 0.27935639 -0.19027622 4281620566
0.013884847 0.28116864 -0.19027622 4281554773
0.013884847 0.28298089 -0.19027622 4281028175
0.015454302 -0.2969411 -0.19118235 4282607207
0.01603749 -0.2939744 -0.18920968 4282607207
0.016329113 -0.29159272 -0.18822329 4282541414
0.016620709 -0.28921622 -0.18723696 4282409828
0.017495491 -0.2857061 -0.18427797 4282344037
0.017495491 -0.28391206 -0.18427797 4282080350
0.018078709 -0.28098953 -0.18230525 4281554006
0.018078709 -0.27920064 -0.18230525 4280301372
0.018370302 -0.27685276 -0.18131891 4280760640
0.018370302 -0.27506652 -0.18131891 4281684311
0.018370302 -0.27328026 -0.18131891 4281815897
0.018078709 -0.27204525 -0.18230525 4281881690
0.018078709 -0.2702564 -0.18230525 4282276961
0.017495491 -0.26955962 -0.18427797 4282605926
0.017495491 -0.26776555 -0.18427797 4282606696
0.017203895 -0.26651233 -0.18526429 4282540903
0.017495491 -0.26417741 -0.18427797 4282541416
0.017495491 -0.26238337 -0.18427797 4282476137
0.017203895 -0.26112235 -0.18526429 4282607723
0.017203895 -0.25932568 -0.18526429 4282673516
0.017203895 -0.25752905 -0.18526429 4282673516
0.017203895 -0.25573239 -0.18526429 4282673516
0.017203895 -0.25393572 -0.18526429 4282673516
0.017495491 -0.25161907 -0.18427797 4282673516
0.017495491 -0.249825 -0.18427797 4282739309
0.017495491 -0.24803093 -0.18427797 4282739309
0.017495491 -0.24623686 -0.18427797 4282739309
0.017495491 -0.24444282 -0.18427797 4282739307
0.017787114 -0.24214172 -0.18329157 4282805100
0.017787114 -0.24035028 -0.18329157 4282805100
0.018078709 -0.23805699 -0.18230525 4282805100
0.018078709 -0.23626813 -0.18230525 4282739307
0.018078709 -0.23447928 -0.18230525 4282805100
0.018078709 -0.23269042 -0.18230525 4282805100
0.018078709 -0.23090157 -0.18230525 4282805100
0.018078709 -0.22911271 -0.18230525 4282870893
0.018078709 -0.22732386 -0.18230525 4282870893
0.017787114 -0.22601861 -0.18329157 4282870893
0.017495491 -0.2247082 -0.18427797 4282870893
0.017495491 -0.22291416 -0.18427797 4282870895
0.017495491 -0.22112009 -0.18427797 4282870895
0.017495491 -0.21932605 -0.18427797 4282804848
0.017495491 -0.21753198 -0.18427797 4282804848
0.017495491 -0.21573794 -0.18427797 4282870641
0.017203895 -0.21440929 -0.18526429 4282805872
0.017203895 -0.21261263 -0.18526429 4282740079
0.017203895 -0.210816 -0.18526429 4282805618
0.017495491 -0.20856172 -0.18427797 4282937204
0.017495491 -0.20676765 -0.18427797 4283002997
0.017495491 -0.20497358 -0.18427797 4283002997
0.017787114 -0.2027297 -0.18329157 4283002997
0.017787114 -0.20093825 -0.18329157 4283002997
0.018078709 -0.19870216 -0.18230525 4283002997
0.018078709 -0.1969133 -0.18230525 4283068790
0.018078709 -0.19512445 -0.18230525 4283199606
0.018370302 -0.19289878 -0.18131891 4283199606
0.018370302 -0.19111252 -0.18131891 4283133813
0.018370302 -0.18932626 -0.18131891 4283133813
0.018370302 -0.18753999 -0.18131891 4283002997
0.018078709 -0.18618017 -0.18230525 4283002997
0.018078709 -0.18439132 -0.18230525 4283002997
0.018078709 -0.18260247 -0.18230525 4283068790
0.017787114 -0.18123221 -0.18329157 4283002997
0.017495491 -0.17985681 -0.18427797 4283068790
0.017495491 -0.17806277 -0.18427797 4283003510
0.017495491 -0.1762687 -0.18427797 4283003510
0.017495491 -0.17447463 -0.18427797 4283003510
0.017495491 -0.17268059 -0.18427797 4283003510
0.017787114 -0.1704835 -0.18329157 4283134583
0.017787114 -0.16869205 -0.18329157 4283199860
0.017787114 -0.16690058 -0.18329157 4283265653
0.018078709 -0.16471389 -0.18230525 4283199860
0.018078709 -0.16292506 -0.18230525 4283069044
0.018078709 -0.16113621 -0.18230525 4283069044
0.018078709 -0.15934736 -0.18230525 4283134837
0.018078709 -0.15755847 -0.18230525 4283069044
0.018078709 -0.15576962 -0.18230525 4283134837
0.018078709 -0.15398079 -0.18230525 4283134837
0.018078709 -0.15219194 -0.18230525 4283069044
0.018078709 -0.15040305 -0.18230525 4283069557
0.017787114 -0.14898601 -0.18329157 4283134837
0.017787114 -0.14719456 -0.18329157 4283069044
0.017787114 -0.14540312 -0.18329157 4282805618
0.017787114 -0.14361167 -0.18329157 4282805618
0.017787114 -0.14182019 -0.18329157 4282739825
0.017495491 -0.14038758 -0.18427797 4282674032
0.017495491 -0.13859354 -0.18427797 4282674032
0.017495491 -0.13679948 -0.18427797 4282476653
0.017787114 -0.13465437 -0.18329157 4282345067
0.017787114 -0.13286293 -0.18329157 4282147688
0.017787114 -0.13107148 -0.18329157 4282016356
0.018078709 -0.1289368 -0.18230525 4282016356
0.018370302 -0.12680732 -0.18131891 4281884770
0.018953504 -0.12434503 -0.17934625 4281884770
0.019245116 -0.12222853 -0.17835985 4282016356
0.019828303 -0.11978446 -0.17638719 4282147172
0.019828303 -0.11801121 -0.17638719 4282147172
0.020119898 -0.11591032 -0.17540085 4282212965
0.020119898 -0.11413966 -0.17540085 4282147172
0.020119898 -0.11236902 -0.17540085 4282016356
0.089520879 -0.0091404803 0.059349239 4285107341
0.089229278 -0.0082486607 0.058362875 4285041548
0.089229278 -0.0070942235 0.058362875 4285173136
0.089520879 -0.0056849685 0.059349239 4284974474
0.089520879 -0.0045331386 0.059349239 4285235336
0.089520879 -0.0033812937 0.059349239 4285168773
0.089520879 -0.0022294563 0.059349239 4285366152
0.08981248 -0.00083321001 0.060335569 4285366152
0.089520879 7.4211071e-05 0.059349239 4285497738
0.089520879 0.0012260485 0.059349239 4287078819
0.089520879 0.0023778784 0.059349239 4287341477
0.089229278 0.0032956931 0.058362875 4287341477
0.088646084 0.0063065696 0.056390211 4287933610
0.088937677 0.007689822 0.057376545 4288394161
0.088937677 0.0088468604 0.057376545 4288723126
0.088937677 0.010003898 0.057376545 4288788406
0.088937677 0.011160929 0.057376545 4288459954
0.088937677 0.012317974 0.057376545 4288459954
0.089229278 0.013685618 0.058362875 4288525747
0.089520879 0.015048083 0.059349239 4288262575
0.089520879 0.016199913 0.059349239 4288065196
0.089520879 0.017351743 0.059349239 4287998890
0.089520879 0.018503588 0.059349239 4287998890
0.089229278 0.019457798 0.058362875 4287340962
0.088937677 0.020417225 0.057376545 4287405985
0.088937677 0.021574255 0.057376545 4285038209
0.088354476 0.022351656 0.055403855 4285301642
0.087188073 0.022765022 0.051458463 4284906884
0.085730068 0.023014579 0.046526745 4285561219
0.084272064 0.023290124 0.041595027 4283512379
0.083397269 0.023950513 0.038635999 4283512379
0.082230859 0.02444968 0.034690615 4285362289
0.080772862 0.024795432 0.029758893 4284443765
0.079314858 0.025167193 0.024827173 4278851360
0.078440048 0.025902975 0.021868121 4279376161
0.077856861 0.02682079 0.019895453 4279179550
0.076982044 0.027585167 0.016936401 4279179550
0.075524047 0.02804273 0.012004681 4279179550
0.074357636 0.028684903 0.008059294 4279245341
0.07319124 0.029347885 0.0041139373 4279311134
0.071733244 0.02987824 -0.00081778265 4279311134
0.070858434 0.030736234 -0.003776839 4279377694
0.069692031 0.032790255 -0.0077222255 4279312931
0.069108836 0.033832859 -0.0096948892 4278918173
0.068817236 0.035026286 -0.010681223 4282473057
0.068234026 0.036087092 -0.012653945 4283661960
0.068234026 0.037428733 -0.012653945 4285835439
0.067942426 0.038637768 -0.013640275 4283795856
0.067942426 0.039982002 -0.013640275 4284515720
0.067650832 0.041198839 -0.014626609 4280758330
0.067650832 0.042545673 -0.014626609 4279375648
0.025660319 0.033178534 -0.15666032 4278719251
0.025660319 0.03489979 -0.15666032 4278916630
0.025660319 0.036621045 -0.15666032 4278916630
0.025368713 0.038238283 -0.15764664 4278982423
0.025368713 0.039962139 -0.15764664 4278917143
0.025368713 0.041685987 -0.15764664 4278982936
0.025077119 0.043313626 -0.15863298 4278917143
0.025077119 0.045040082 -0.15863298 4278851350
0.025077119 0.046766534 -0.15863298 4278851350
0.025077119 0.04849299 -0.15863298 4278851350
0.025077119 0.050219443 -0.15863298 4278785557
0.025077119 0.051945895 -0.15863298 4278785557
0.025077119 0.053672351 -0.15863298 4278851350
0.025077119 0.055398803 -0.15863298 4278785557
0.025077119 0.057125259 -0.15863298 4278785557
0.025077119 0.058851711 -0.15863298 4278785557
0.025077119 0.060578167 -0.15863298 4278785557
0.025077119 0.06230462 -0.15863298 4278785557
0.025077119 0.064031072 -0.15863298 4278851350
0.025077119 0.065757528 -0.15863298 4278785557
0.025077119 0.067483976 -0.15863298 4278785557
0.024493931 0.069096006 -0.16060564 4278851350
0.024493931 0.070827663 -0.16060564 4278851350
0.024785524 0.072611324 -0.1596193 4278917143
0.025077119 0.074389793 -0.15863298 4279510825
0.025077119 0.076116249 -0.15863298 4279839790
0.025077119 0.077842705 -0.15863298 4280103732
0.025077119 0.079569153 -0.15863298 4280235318
0.025077119 0.081295609 -0.15863298 4280301624
0.051904395 0.095295496 -0.067889251 4281866006
0.051904395 0.096782744 -0.067889251 4285411373
0.051612787 0.098254375 -0.068875574 4286460465
0.051904395 0.099757232 -0.067889251 4286787893
0.051612787 0.10123407 -0.068875574 4287314237
0.051612787 0.10272391 -0.068875574 4287709247
0.051612787 0.10421376 -0.068875574 4287840833
0.051612787 0.10570361 -0.068875574 4287905856
0.051612787 0.10719346 -0.068875574 4288037185
0.051612787 0.1086833 -0.068875574 4288102978
0.051612787 0.11017314 -0.068875574 4288365380
0.051612787 0.11166299 -0.068875574 4288431173
0.051612787 0.11315284 -0.068875574 4288496966
0.051612787 0.11464269 -0.068875574 4288496966
0.051612787 0.11613253 -0.068875574 4288628552
0.051612787 0.11762238 -0.068875574 4288628552
0.051321194 0.11913301 -0.069861911 4288891724
0.051612787 0.12060207 -0.068875574 4288825931
0.051612787 0.12209191 -0.068875574 4288694345
0.051612787 0.12358176 -0.068875574 4288957519
0.051612787 0.12507161 -0.068875574 4288957519
0.051612787 0.12656145 -0.068875574 4289089105
0.051612787 0.1280513 -0.068875574 4289154898
0.051612787 0.12954114 -0.068875574 4289089103
0.051612787 0.13103099 -0.068875574 4289154896
0.051904395 0.13247664 -0.067889251 4289286482
0.051904395 0.1339639 -0.067889251 4289286482
0.051612787 0.13550054 -0.068875574 4289352275
0.051904395 0.13693839 -0.067889251 4289352275
0.051612787 0.13848022 -0.068875574 4289286482
0.051904395 0.13991287 -0.067889251 4289155666
0.051612787 0.14145991 -0.068875574 4289155666
0.051612787 0.14294976 -0.068875574 4288760908
0.051321194 0.14450459 -0.069861911 4287971651
0.051321194 0.14599705 -0.069861911 4287775812
0.051029582 0.14755969 -0.070848301 4284623917
0.050737988 0.14912751 -0.071834639 4284097573
0.05044638 0.15070055 -0.072820961 4282132521
0.05044638 0.1522008 -0.072820961 4281152822
0.050154787 0.15378164 -0.073807299 4280826683
0.050154787 0.15528449 -0.073807299 4280630074
0.049863175 0.15687314 -0.074793689 4280498488
0.050154787 0.15829018 -0.073807299 4280695099
0.05044638 0.15970203 -0.072820961 4281090629
0.051029582 0.16101509 -0.070848301 4283460974
0.051612787 0.16231777 -0.068875574 4284118650
0.051904395 0.16370882 -0.067889251 4283987064
0.052487582 0.16499329 -0.065916583 4284777863
0.053362396 0.16616336 -0.062957533 4285107341
0.055111989 0.16699804 -0.057039477 4285041548
0.071150027 0.17166063 -0.0027905053 4286291877
0.07319124 0.17336376 0.0041139373 4287412147
0.073774442 0.17439081 0.0060866307 4284780427
0.074066043 0.17554526 0.0070729605 4281425750
0.074066043 0.1768349 0.0070729605 4281623642
0.074357636 0.17798154 0.008059294 4281230170
0.073774442 0.17955977 0.0060866307 4281100130
0.074066043 0.18070382 0.0070729605 4281100130
0.074066043 0.18199345 0.0070729605 4281165158
0.073774442 0.18343648 0.0060866307 4282019184
0.073482841 0.18488473 0.0051002675 4281949791
0.073774442 0.18602097 0.0060866307 4282146397
0.073774442 0.18731321 0.0060866307 4282541155
0.073774442 0.18860544 0.0060866307 4282936426
0.073774442 0.18989769 0.0060866307 4283461485
0.073774442 0.19118993 0.0060866307 4284378222
0.073774442 0.19248216 0.0060866307 4283786085
0.073774442 0.1937744 0.0060866307 4283517777
0.074066043 0.19488986 0.0070729605 4283647815
0.074066043 0.19617949 0.0070729605 4283909704
0.074357636 0.19728714 0.008059294 4284041037
0.074066043 0.19875878 0.0070729605 4284172623
0.074066043 0.20004842 0.0070729605 4285427057
0.074066043 0.20133805 0.0070729605 4283522913
0.074066043 0.2026277 0.0070729605 4283390815
0.073774442 0.20411234 0.0060866307 4283389271
0.074066043 0.20520698 0.0070729605 4283389271
0.074357636 0.20629643 0.008059294 4283584079
0.074357636 0.20758347 0.008059294 4283582283
0.074066043 0.2090759 0.0070729605 4283648589
0.074357636 0.21015754 0.008059294 4284374624
0.074357636 0.21144459 0.008059294 4283848280
0.074357636 0.21273163 0.008059294 4283189325
0.074940845 0.21358708 0.010031987 4283058509
0.016620709 0.26575541 -0.18723696 4282799190
0.016329113 0.26778865 -0.18822329 4282275926
0.016329113 0.26959312 -0.18822329 4282145110
0.016329113 0.27139756 -0.18822329 4282014041
0.016329113 0.27320203 -0.18822329 4282014041
0.016329113 0.27500647 -0.18822329 4281883225
0.015745895 0.27729973 -0.19019601 4281751639
0.015745895 0.27910939 -0.19019601 4281685846
0.015745895 0.28091905 -0.19019601 4281422933
0.015745895 0.2827287 -0.19019601 4281159761
0.017313117 -0.2963613 -0.19110085 4282738793
0.017602453 -0.2939744 -0.19011322 4282607207
0.018181168 -0.29101807 -0.18813789 4282541414
0.018470503 -0.28864419 -0.18715025 4282409828
0.019049201 -0.2857061 -0.185175 4282278242
0.019627903 -0.28277838 -0.18319967 4282015070
0.019627903 -0.28098953 -0.18319967 4281554006
0.019917252 -0.27863902 -0.18221204 4280432958
0.019917252 -0.27685276 -0.18221204 4280235066
0.019917252 -0.27506652 -0.18221204 4281749334
0.0202066 -0.27272645 -0.18122441 4281815897
0.019917252 -0.27149403 -0.18221204 4281815897
0.019917252 -0.26970777 -0.18221204 4282276448
0.019338567 -0.26901355 -0.18418731 4282605926
0.019049201 -0.26776555 -0.185175 4282606696
0.019049201 -0.26597151 -0.185175 4282540903
0.019049201 -0.26417741 -0.185175 4282410344
0.019049201 -0.26238337 -0.185175 4282476137
0.019049201 -0.26058933 -0.185175 4282476137
0.019049201 -0.25879526 -0.185175 4282673516
0.019049201 -0.25700122 -0.185175 4282673516
0.019049201 -0.25520715 -0.185175 4282673516
0.019049201 -0.25341311 -0.185175 4282673516
0.019049201 -0.25161907 -0.185175 4282673516
0.019049201 -0.249825 -0.185175 4282739309
0.019049201 -0.24803093 -0.185175 4282739309
0.019338567 -0.24572462 -0.18418731 4282739309
0.019338567 -0.24393317 -0.18418731 4282739307
0.019627903 -0.2416347 -0.18319967 4282805100
0.019627903 -0.23984584 -0.18319967 4282739307
0.019917252 -0.23755518 -0.18221204 4282805100
0.019917252 -0.23576891 -0.18221204 4282805102
0.019917252 -0.23398265 -0.18221204 4282805102
0.019917252 -0.23219639 -0.18221204 4282805100
0.019917252 -0.23041016 -0.18221204 4282805100
0.019917252 -0.2286239 -0.18221204 4282805100
0.019917252 -0.22683764 -0.18221204 4282870893
0.019917252 -0.22505137 -0.18221204 4282870893
0.019627903 -0.22374615 -0.18319967 4282870893
0.019338567 -0.22243571 -0.18418731 4282870895
0.019338567 -0.22064424 -0.18418731 4282870895
0.019049201 -0.21932605 -0.185175 4282804848
0.019049201 -0.21753198 -0.185175 4282804848
0.019049201 -0.21573794 -0.185175 4282870641
0.019049201 -0.21394387 -0.185175 4282805872
0.019049201 -0.21214983 -0.185175 4282805872
0.019049201 -0.21035576 -0.185175 4282805618
0.019049201 -0.20856172 -0.185175 4282937204
0.019338567 -0.20631263 -0.18418731 4283002997
0.019627903 -0.20406872 -0.18319967 4283002997
0.019627903 -0.20227987 -0.18319967 4283002997
0.019917252 -0.2000438 -0.18221204 4283002997
0.019917252 -0.19825757 -0.18221204 4282937204
0.019917252 -0.19647127 -0.18221204 4283002997
0.019917252 -0.19468504 -0.18221204 4283199606
0.0202066 -0.19246197 -0.18122441 4283133813
0.0202066 -0.1906783 -0.18122441 4283133813
0.0202066 -0.18889463 -0.18122441 4283133813
0.019917252 -0.18753999 -0.18221204 4283133813
0.019917252 -0.18575376 -0.18221204 4283133813
0.019917252 -0.1839675 -0.18221204 4283199606
0.019917252 -0.18218124 -0.18221204 4283265399
0.019627903 -0.18081361 -0.18319967 4283199606
0.019627903 -0.17902476 -0.18319967 4283068790
0.019338567 -0.17764932 -0.18418731 4283002997
0.019338567 -0.17585787 -0.18418731 4283068790
0.019338567 -0.17406639 -0.18418731 4283068790
0.019338567 -0.17227495 -0.18418731 4283068790
0.019338567 -0.1704835 -0.18418731 4283068790
0.019338567 -0.16869205 -0.18418731 4283199606
0.019627903 -0.16650274 -0.18319967 4283265399
0.019627903 -0.16471389 -0.18319967 4283199860
0.019627903 -0.16292506 -0.18319967 4283069044
0.019627903 -0.16113621 -0.18319967 4283069044
0.019627903 -0.15934736 -0.18319967 4283134837
0.019627903 -0.15755847 -0.18319967 4283069044
0.019627903 -0.15576962 -0.18319967 4283134837
0.019627903 -0.15398079 -0.18319967 4283134837
0.019627903 -0.15219194 -0.18319967 4283069044
0.019338567 -0.15077746 -0.18418731 4283200630
0.019338567 -0.14898601 -0.18418731 4283134837
0.019338567 -0.14719456 -0.18418731 4283003251
0.019338567 -0.14540312 -0.18418731 4282805872
0.019338567 -0.14361167 -0.18418731 4282805872
0.019049201 -0.14218163 -0.185175 4282937458
0.019338567 -0.14002874 -0.18418731 4282740079
0.019049201 -0.13859354 -0.185175 4282740079
0.019049201 -0.13679948 -0.185175 4282608493
0.019049201 -0.13500541 -0.185175 4282476907
0.019338567 -0.13286293 -0.18418731 4282279528
0.019338567 -0.13107148 -0.18418731 4282147942
0.019627903 -0.1289368 -0.18319967 4282147172
0.019627903 -0.12714793 -0.18319967 4281884770
0.0202066 -0.12468305 -0.18122441 4281884770
0.020785302 -0.12222853 -0.17924908 4281884770
0.020785302 -0.12045009 -0.17924908 4282147172
0.021074651 -0.11834142 -0.17826144 4282147172
0.021364 -0.11623794 -0.17727382 4282147172
0.021653336 -0.11413966 -0.17628619 4282212965
0.021653336 -0.11236902 -0.17628619 4282082149
0.021653336 -0.11059837 -0.17628619 4282082149
0.021653336 -0.1088277 -0.17628619 4282082149
0.0905184 -0.01029231 0.05877332 4285041802
0.090229049 -0.0094031058 0.057785656 4285041548
0.089939699 -0.0085086711 0.056798026 4285041548
0.090229049 -0.0070942235 0.057785656 4284909962
0.090229049 -0.0059397933 0.057785656 4284843656
0.090229049 -0.0047853631 0.057785656 4285038984
0.090229049 -0.003630918 0.057785656 4284971394
0.0905184 -0.0022294563 0.05877332 4285037187
0.0905184 -0.0010776264 0.05877332 4285168773
0.0905184 7.4211071e-05 0.05877332 4285169543
0.0905184 0.0012260485 0.05877332 4284118398
0.090229049 0.0021412554 0.057785656 4285104777
0.090229049 0.0032956931 0.057785656 4285038984
0.089939699 0.0042187157 0.056798026 4284775558
0.089939699 0.0053757536 0.056798026 4284775558
0.089650363 0.0063065696 0.055810392 4285301129
0.089650363 0.0074662077 0.055810392 4285301129
0.089650363 0.0086258464 0.055810392 4285497225
0.089650363 0.0097854845 0.055810392 4285628041
0.089939699 0.011160929 0.056798026 4285496455
0.089939699 0.012317974 0.056798026 4285562246
0.089939699 0.013475005 0.056798026 4285562246
0.089939699 0.014632042 0.056798026 4282799710
0.090229049 0.015994493 0.057785656 4283852400
0.090229049 0.017148923 0.057785656 4284772730
0.090229049 0.018303361 0.057785656 4285299074
0.089939699 0.019260179 0.056798026 4285299328
0.089650363 0.020222206 0.055810392 4285693572
0.089361012 0.021189418 0.054822732 4285365121
0.089071661 0.022161845 0.053835101 4285236101
0.087914258 0.022577804 0.049884513 4284907136
0.086756863 0.023014579 0.045933925 4285036156
0.085599475 0.023472149 0.041983366 4283249724
0.084442079 0.023950513 0.038032778 4284302412
0.083284676 0.02444968 0.034082193 4285296498
0.081837937 0.024795432 0.02914397 4284180847
0.080391191 0.025167193 0.024205754 4278851614
0.078944452 0.025564943 0.019267533 4279245345
0.078076392 0.026321534 0.01630458 4279114270
0.077208348 0.02709372 0.013341653 4279114270
0.075472251 0.027397867 0.0074157724 4279180063
0.074314862 0.028050441 0.0034652154 4279311649
0.073157467 0.028723817 -0.00048537523 4279574819
0.072000071 0.029417988 -0.0044359621 4279640612
0.071132012 0.030283783 -0.007398915 4279116839
0.070553325 0.031313393 -0.0093741789 4278792245
0.069974639 0.032353412 -0.011349447 4282741362
0.069685273 0.033546824 -0.012337136 4285044117
0.069685273 0.034885865 -0.012337136 4288858826
0.069395922 0.036087092 -0.013324765 4287874247
0.069106586 0.03729352 -0.014312403 4284385685
0.069106586 0.038637768 -0.014312403 4278859073
0.068817236 0.03985199 -0.015300034 4278982946
0.06852787 0.041071411 -0.016287722 4279178778
0.027150964 0.033178534 -0.15752093 4278652686
0.027150964 0.03489979 -0.15752093 4278850835
0.027150964 0.036621045 -0.15752093 4278850835
0.027150964 0.038342293 -0.15752093 4278916628
0.027150964 0.040063549 -0.15752093 4278916630
0.026861629 0.041685987 -0.15850857 4278917143
0.026861629 0.043409843 -0.15850857 4278917143
0.026861629 0.045133695 -0.15850857 4278851350
0.02657228 0.046766534 -0.1594962 4278851350
0.02657228 0.04849299 -0.1594962 4278851350
0.02657228 0.050219443 -0.1594962 4278785557
0.02657228 0.051945895 -0.1594962 4278785557
0.02657228 0.053672351 -0.1594962 4278785557
0.02657228 0.055398803 -0.1594962 4278785557
0.02657228 0.057125259 -0.1594962 4278785557
0.02657228 0.058851711 -0.1594962 4278785557
0.02657228 0.060578167 -0.1594962 4278785557
0.02657228 0.06230462 -0.1594962 4278785557
0.02657228 0.064031072 -0.1594962 4278785557
0.02657228 0.065757528 -0.1594962 4278785557
0.026282931 0.067424163 -0.16048384 4278851350
0.025993582 0.069096006 -0.16147147 4278851350
0.025993582 0.070827663 -0.16147147 4278851350
0.026282931 0.072611324 -0.16048384 4278786071
0.02657228 0.074389793 -0.1594962 4279379239
0.02657228 0.076116249 -0.1594962 4279773997
0.02657228 0.077842705 -0.1594962 4279906353
0.02657228 0.079569153 -0.1594962 4279906353
0.02657228 0.081295609 -0.1594962 4280103732
0.027150964 0.083094887 -0.15752093 4280103732
0.052903045 0.096764527 -0.069620505 4282718741
0.052903045 0.098254375 -0.069620505 4285540390
0.052903045 0.099744223 -0.069620505 4286591538
0.052903045 0.10123407 -0.069620505 4286723124
0.053192381 0.10273173 -0.068632871 4287643456
0.053192381 0.10421897 -0.068632871 4287840833
0.052903045 0.10570361 -0.069620505 4287840833
0.052903045 0.10719346 -0.069620505 4288037442
0.052903045 0.1086833 -0.069620505 4288037442
0.052903045 0.11017314 -0.069620505 4288366150
0.052903045 0.11166299 -0.069620505 4288366150
0.052903045 0.11315284 -0.069620505 4288431943
0.052903045 0.11464269 -0.069620505 4288431943
0.052903045 0.11613253 -0.069620505 4288563529
0.052903045 0.11762238 -0.069620505 4288695115
0.052903045 0.11911222 -0.069620505 4288957519
0.052903045 0.12060207 -0.069620505 4288957519
0.053192381 0.12206592 -0.068632871 4289023312
0.053192381 0.12355317 -0.068632871 4288958289
0.053192381 0.12504041 -0.068632871 4288892496
0.053192381 0.12652767 -0.068632871 4289155668
0.053481732 0.12797852 -0.067645244 4289221461
0.053481732 0.12946317 -0.067645244 4289024082
0.053192381 0.1309894 -0.068632871 4289155668
0.053481732 0.13243246 -0.067645244 4289155666
0.053481732 0.13391711 -0.067645244 4289155666
0.053481732 0.13540176 -0.067645244 4289287252
0.053481732 0.1368864 -0.067645244 4289221459
0.053481732 0.13837105 -0.067645244 4289221459
0.053192381 0.13991287 -0.068632871 4289221459
0.052903045 0.14145991 -0.069620505 4288431691
0.052903045 0.14294976 -0.069620505 4287773761
0.052613698 0.14450459 -0.070608139 4288038214
0.052613698 0.14599705 -0.070608139 4286725180
0.052034982 0.14762987 -0.072583459 4283181096
0.051745646 0.14920031 -0.073571093 4282852131
0.051456299 0.15077595 -0.074558727 4281674537
0.051456299 0.1522788 -0.074558727 4281022006
0.051166933 0.15386224 -0.075546414 4280630074
0.051166933 0.15536769 -0.075546414 4280695867
0.051166933 0.15687314 -0.075546414 4280366902
0.051456299 0.15829018 -0.074558727 4280630076
0.051745646 0.15970203 -0.073571093 4280893763
0.052034982 0.16110869 -0.072583459 4283263595
0.052903045 0.16231777 -0.069620505 4283921525
0.053192381 0.16370882 -0.068632871 4283921525
0.053771079 0.16499329 -0.06665761 4284843656
0.054639131 0.16616336 -0.063694656 4285173134
0.056953929 0.16678487 -0.055793479 4284910476
0.069974639 0.16867043 -0.011349447 4285239959
0.070263982 0.16988468 -0.010361813 4285568924
0.071421377 0.17071936 -0.006411226 4285897889
0.07257878 0.17153323 -0.0024606392 4285897889
0.073736154 0.1723263 0.0014898924 4286294182
0.074604213 0.17323117 0.0044528455 4286820778
0.074893564 0.17439081 0.0054405089 4280834380
0.074893564 0.17568305 0.0054405089 4281031759
0.074893564 0.17697529 0.0054405089 4281163345
0.074893564 0.17826752 0.0054405089 4280835410
0.074604213 0.17970537 0.0044528455 4280571990
0.074604213 0.1810002 0.0044528455 4280835162
0.074314862 0.18244584 0.0034652154 4281624424
0.074314862 0.18374327 0.0034652154 4282281324
0.074314862 0.18504071 0.0034652154 4283069042
0.074314862 0.18633816 0.0034652154 4283200628
0.074314862 0.1876356 0.0034652154 4283266421
0.074604213 0.18876925 0.0044528455 4283528563
0.074604213 0.19006409 0.0044528455 4283849052
0.074604213 0.19135892 0.0044528455 4283712585
0.074893564 0.19248216 0.0054405089 4283645762
0.074893564 0.1937744 0.0054405089 4283645762
0.074893564 0.19506665 0.0054405089 4283842626
0.074893564 0.19635889 0.0054405089 4283712323
0.074893564 0.19765113 0.0054405089 4283912531
0.074893564 0.19894338 0.0054405089 4284307289
0.074893564 0.20023561 0.0054405089 4284704357
0.074604213 0.20171764 0.0044528455 4284311654
0.074604213 0.20301248 0.0044528455 4283653726
0.074314862 0.20450233 0.0034652154 4284050281
0.074604213 0.20560217 0.0044528455 4284181867
0.074604213 0.20689701 0.0044528455 4282994509
0.074604213 0.20819184 0.0044528455 4283582022
0.074604213 0.20948668 0.0044528455 4283581252
0.074604213 0.21078153 0.0044528455 4283647045
0.074604213 0.21207637 0.0044528455 4283516743
0.074893564 0.21315801 0.0054405089 4283254601
0.018470503 0.26372737 -0.18715025 4282994513
0.018470503 0.26552662 -0.18715025 4282603094
0.018470503 0.26732588 -0.18715025 4282145112
0.018181168 0.26935911 -0.18813789 4282079832
0.018181168 0.27116099 -0.18813789 4281883225
0.017891819 0.27320203 -0.18912552 4281751639
0.017891819 0.27500647 -0.18912552 4281883225
0.017891819 0.27681094 -0.18912552 4281685846
0.017891819 0.27861539 -0.18912552 4281685846
0.017891819 0.28041986 -0.18912552 4281488980
0.017602453 0.28247651 -0.19011322 4281291601
0.019167403 -0.29578146 -0.19101673 4282738793
0.019454524 -0.29339716 -0.19002774 4282607207
0.020028705 -0.29044345 -0.18804988 4282541414
0.020315794 -0.2880722 -0.18706095 4282475621
0.020602899 -0.2857061 -0.18607202 4282344035
0.021177096 -0.28277838 -0.1840941 4282080863
0.021464186 -0.28042531 -0.18310516 4280762437
0.021464186 -0.27863902 -0.18310516 4280565058
0.021464186 -0.27685276 -0.18310516 4279906101
0.02175129 -0.27451009 -0.18211624 4281815127
0.02175129 -0.27272645 -0.18211624 4281750104
0.021464186 -0.27149403 -0.18310516 4281815897
0.021464186 -0.26970777 -0.18310516 4282276448
0.021177096 -0.26846755 -0.1840941 4282474340
0.020890005 -0.26722211 -0.18508303 4282475623
0.020602899 -0.26597151 -0.18607202 4282410344
0.020890005 -0.26363915 -0.18508303 4282410344
0.020890005 -0.2618477 -0.18508303 4282476137
0.020602899 -0.26058933 -0.18607202 4282476137
0.020602899 -0.25879526 -0.18607202 4282607723
0.020602899 -0.25700122 -0.18607202 4282607723
0.020602899 -0.25520715 -0.18607202 4282673516
0.020602899 -0.25341311 -0.18607202 4282673516
0.020602899 -0.25161907 -0.18607202 4282673516
0.020602899 -0.249825 -0.18607202 4282739309
0.020890005 -0.24751607 -0.18508303 4282805102
0.020890005 -0.24572462 -0.18508303 4282739309
0.021177096 -0.24342355 -0.1840941 4282739309
0.021177096 -0.2416347 -0.1840941 4282805100
0.021464186 -0.23934141 -0.18310516 4282739307
0.021464186 -0.23755518 -0.18310516 4282805100
0.021464186 -0.23576891 -0.18310516 4282870895
0.021464186 -0.23398265 -0.18310516 4282805102
0.021464186 -0.23219639 -0.18310516 4282805102
0.021464186 -0.23041016 -0.18310516 4282805102
0.021464186 -0.2286239 -0.18310516 4282805100
0.021464186 -0.22683764 -0.18310516 4282870893
0.021464186 -0.22505137 -0.18310516 4282870893
0.021464186 -0.22326511 -0.18310516 4282870893
0.021177096 -0.2219573 -0.1840941 4282870895
0.021177096 -0.22016841 -0.1840941 4282870895
0.021177096 -0.21837956 -0.1840941 4282805102
0.021177096 -0.21659073 -0.1840941 4282870895
0.020890005 -0.21526989 -0.18508303 4282936688
0.020890005 -0.21347842 -0.18508303 4283068274
0.020890005 -0.21168697 -0.18508303 4282740079
0.020890005 -0.20989552 -0.18508303 4282805872
0.021177096 -0.20764646 -0.1840941 4282805872
0.021464186 -0.20540258 -0.18310516 4283003251
0.021464186 -0.20361629 -0.18310516 4283003251
0.021464186 -0.20183006 -0.18310516 4283003251
0.021464186 -0.2000438 -0.18310516 4282937458
0.02175129 -0.19781294 -0.18211624 4282937458
0.02175129 -0.19602928 -0.18211624 4283069044
0.02203838 -0.1938062 -0.18112729 4283069044
0.02203838 -0.19202513 -0.18112729 4283003251
0.02203838 -0.19024408 -0.18112729 4283002997
0.02203838 -0.18846303 -0.18112729 4283068790
0.02203838 -0.18668196 -0.18112729 4283002997
0.02175129 -0.18532732 -0.18211624 4283002997
0.02175129 -0.18354368 -0.18211624 4283068790
0.02175129 -0.18176004 -0.18211624 4283134583
0.021464186 -0.18039498 -0.18310516 4283068790
0.021464186 -0.17860875 -0.18310516 4283068790
0.021464186 -0.17682248 -0.18310516 4283068790
0.021177096 -0.17544705 -0.1840941 4283068790
0.021177096 -0.17365816 -0.1840941 4283068790
0.021177096 -0.17186934 -0.1840941 4283068790
0.021177096 -0.17008048 -0.1840941 4283068790
0.021177096 -0.16829163 -0.1840941 4283068790
0.021177096 -0.16650274 -0.1840941 4283134583
0.021177096 -0.16471389 -0.1840941 4283068790
0.021177096 -0.16292506 -0.1840941 4283069044
0.021177096 -0.16113621 -0.1840941 4283134837
0.021177096 -0.15934736 -0.1840941 4283134837
0.021177096 -0.15755847 -0.1840941 4283069044
0.021177096 -0.15576962 -0.1840941 4283134837
0.021177096 -0.15398079 -0.1840941 4283069044
0.020890005 -0.15256894 -0.18508303 4283069044
0.020890005 -0.15077746 -0.18508303 4283134837
0.020602899 -0.14935786 -0.18607202 4283069044
0.020602899 -0.14756382 -0.18607202 4283003251
0.020602899 -0.14576977 -0.18607202 4282805872
0.020602899 -0.1439757 -0.18607202 4282805872
0.020602899 -0.14218163 -0.18607202 4282937458
0.020602899 -0.14038758 -0.18607202 4282805872
0.020602899 -0.13859354 -0.18607202 4282740079
0.020602899 -0.13679948 -0.18607202 4282608493
0.020602899 -0.13500541 -0.18607202 4282476907
0.020602899 -0.13321136 -0.18607202 4282345321
0.020890005 -0.13107148 -0.18508303 4282213735
0.020890005 -0.12928002 -0.18508303 4282212965
0.021177096 -0.12714793 -0.1840941 4282016356
0.021464186 -0.12502107 -0.18310516 4281884770
0.021464186 -0.12323481 -0.18310516 4281884770
0.02175129 -0.12111574 -0.18211624 4282015586
0.02203838 -0.11900188 -0.18112729 4282147172
0.02203838 -0.1172208 -0.18112729 4282212965
0.022325488 -0.11511472 -0.1801383 4282212965
0.022325488 -0.11333627 -0.1801383 4282082149
0.022325488 -0.11155781 -0.1801383 4282082149
0.022325488 -0.10977934 -0.1801383 4282082149
0.022325488 -0.10800089 -0.1801383 4282016356
0.091228813 -0.011711974 0.057208441 4284511613
0.091228813 -0.010557536 0.057208441 4285106058
0.090654626 -0.0099283345 0.055230577 4284778376
0.090941727 -0.0085086711 0.056219507 4284844169
0.090941727 -0.0073516411 0.056219507 4284843656
0.091228813 -0.0059397933 0.057208441 4284843656
0.091228813 -0.0047853631 0.057208441 4284908168
0.091228813 -0.003630918 0.057208441 4284709505
0.091228813 -0.0024764803 0.057208441 4284775298
0.091228813 -0.0013220501 0.057208441 4284512126
0.091228813 -0.00016761242 0.057208441 4284183673
0.091228813 0.00098682521 0.057208441 4283396210
0.091228813 0.0021412554 0.057208441 4282739825
0.090941727 0.0030616778 0.056219507 4282805618
0.090654626 0.0039873007 0.055230577 4283725950
0.090654626 0.0051469388 0.055230577 4283921534
0.090654626 0.0063065696 0.055230577 4284906630
0.090654626 0.0074662077 0.055230577 4285169802
0.090367533 0.0084048249 0.054241616 4285366152
0.090654626 0.0097854845 0.055230577 4285496455
0.090654626 0.010945115 0.055230577 4285364869
0.090654626 0.012104753 0.055230577 4285496453
0.090654626 0.013264392 0.055230577 4285496453
0.090941727 0.014632042 0.056219507 4282733919
0.090941727 0.015789073 0.056219507 4283983734
0.090941727 0.016946111 0.056219507 4284181363
0.090654626 0.017902937 0.055230577 4284247156
0.090654626 0.019062568 0.055230577 4285035642
0.090367533 0.020027187 0.054241616 4285298301
0.090080433 0.020997006 0.053252686 4285298814
0.089793332 0.021972019 0.052263722 4285168512
0.088932045 0.022577804 0.049296897 4285168512
0.08778365 0.023014579 0.045341108 4284775037
0.086922362 0.023654159 0.042374283 4282665294
0.085486881 0.023950513 0.03742956 4284770670
0.084051393 0.02427287 0.032484844 4284771437
0.082328804 0.024446998 0.026551163 4283719267
0.080606222 0.024652336 0.020617481 4279179550
0.079170734 0.025057893 0.01567276 4279377190
0.078309447 0.025822286 0.012705936 4279311911
0.076873966 0.02627464 0.0077612144 4279443497
0.07572557 0.02691422 0.0038054271 4279510060
0.074577183 0.027574588 -0.00015036014 4279378989
0.071706206 0.029982153 -0.010039799 4287809479
0.071132027 0.031016964 -0.012017667 4289455328
0.070844911 0.032207791 -0.013006653 4285702295
0.070557818 0.03340381 -0.013995586 4288861394
0.070270725 0.034605037 -0.01498452 4289056459
0.070270725 0.035949279 -0.01498452 4288001983
0.070270725 0.03729352 -0.01498452 4278787370
0.069983639 0.038505148 -0.015973454 4278458405
0.069696516 0.03972197 -0.016962439 4278982171
0.028641609 0.031457279 -0.15838157 4278652684
0.028928729 0.033290353 -0.15739258 4278586891
0.028928729 0.035009008 -0.15739258 4278850835
0.028641609 0.036621045 -0.15838157 4278850835
0.028641609 0.038342293 -0.15838157 4278916628
0.028641609 0.040063549 -0.15838157 4278916628
0.028641609 0.041784804 -0.15838157 4278916628
0.028354518 0.043409843 -0.1593705 4278916628
0.028354518 0.045133695 -0.1593705 4278785557
0.028354518 0.046857547 -0.1593705 4278785557
0.028354518 0.048581403 -0.1593705 4278785557
0.028354518 0.050305255 -0.1593705 4278785557
0.028354518 0.05202911 -0.1593705 4278785557
0.028354518 0.053752962 -0.1593705 4278785557
0.028354518 0.055476818 -0.1593705 4278785557
0.028354518 0.05720067 -0.1593705 4278785557
0.028354518 0.058924526 -0.1593705 4278785557
0.028354518 0.060648378 -0.1593705 4278785557
0.028067429 0.06230462 -0.16035943 4278785555
0.028067429 0.064031072 -0.16035943 4278785555
0.028067429 0.065757528 -0.16035943 4278785555
0.028067429 0.067483976 -0.16035943 4278851348
0.027493235 0.069096006 -0.16233729 4278785555
0.027493235 0.070827663 -0.16233729 4278785557
0.027780337 0.072611324 -0.16134836 4278786071
0.028067429 0.074389793 -0.16035943 4279378724
0.028067429 0.076116249 -0.16035943 4279641896
0.028067429 0.077842705 -0.16035943 4279905581
0.028067429 0.079569153 -0.16035943 4279840560
0.028067429 0.081295609 -0.16035943 4279840560
0.028641609 0.083094887 -0.15838157 4279906353
0.02950291 0.084917575 -0.15541472 4279840560
0.053906187 0.098238766 -0.071354359 4281799695
0.054193281 0.099744223 -0.070365421 4283437583
0.053906187 0.10122366 -0.071354359 4285411373
0.054193281 0.10272391 -0.070365421 4286789430
0.054193281 0.10421376 -0.070365421 4286788917
0.054193281 0.10570361 -0.070365421 4287380284
0.054193281 0.10719346 -0.070365421 4288038214
0.054193281 0.1086833 -0.070365421 4288104007
0.054193281 0.11017314 -0.070365421 4288301386
0.054193281 0.11166299 -0.070365421 4288367179
0.054193281 0.11315284 -0.070365421 4288497995
0.05448037 0.11462969 -0.069376491 4288497995
0.05448037 0.11611694 -0.069376491 4288563531
0.05448037 0.11760419 -0.069376491 4288760910
0.05448037 0.11909144 -0.069376491 4288826703
0.05448037 0.12057868 -0.069376491 4288826703
0.05448037 0.12206592 -0.069376491 4288892496
0.054767475 0.12352458 -0.068387568 4288958289
0.054767475 0.12500922 -0.068387568 4288958289
0.054767475 0.12649387 -0.068387568 4289155668
0.054767475 0.12797852 -0.068387568 4289221461
0.055054564 0.12942418 -0.06739863 4289155668
0.054767475 0.13094781 -0.068387568 4289221461
0.054767475 0.13243246 -0.068387568 4289221459
0.054767475 0.13391711 -0.068387568 4289221459
0.054767475 0.13540176 -0.068387568 4289287252
0.054767475 0.1368864 -0.068387568 4289287252
0.05448037 0.13842563 -0.069376491 4288234566
0.05448037 0.13991287 -0.069376491 4288037187
0.053906187 0.14151971 -0.071354359 4287971651
0.053906187 0.14301215 -0.071354359 4287905858
0.053331979 0.14463457 -0.07333228 4284424480
0.053044889 0.14619982 -0.07432121 4283050795
0.052757796 0.14777026 -0.075310148 4281345572
0.052757796 0.1492731 -0.075310148 4281345572
0.052470692 0.15085134 -0.076299138 4281348144
0.052183587 0.15243478 -0.077288069 4280694584
0.052183587 0.15394282 -0.077288069 4280630074
