# .PCD v0.7 - Point Cloud Data file format
VERSION 0.7
FIELDS x y z rgb
SIZE 4 4 4 4
TYPE F F F U
COUNT 1 1 1 1
WIDTH 1064
HEIGHT 1
VIEWPOINT 0 0 0 1 0 0 0
POINTS 1064
DATA ascii
0.25983903 0.13263218 -0.18200006 4287041298
0.26030329 0.13107669 -0.18300004 4287041298
0.26076755 0.12951602 -0.18400003 4286975251
0.26123178 0.12795016 -0.18500002 4286975505
0.26076755 0.12592123 -0.18400003 4287107089
0.26076755 0.12412384 -0.18400003 4286975503
0.26030329 0.12210271 -0.18300004 4287107089
0.25844625 0.10514809 -0.17900003 4287041811
0.25844625 0.10336368 -0.17900003 4286976016
0.25844625 0.098010451 -0.17900003 4286780431
0.25844625 0.096226051 -0.17900003 4286912017
0.25844625 0.094441637 -0.17900003 4286584079
0.25844625 0.092657223 -0.17900003 4286518032
0.25844625 0.090872824 -0.17900003 4286387731
0.25937474 -0.037619442 -0.18100001 4288374638
0.25751773 -0.14612176 -0.17700006 4286756280
0.25751773 -0.14790097 -0.17700006 4286756016
0.25751773 -0.14968018 -0.17700006 4285765023
0.25798199 -0.15163305 -0.17800005 4286159781
0.25798199 -0.15341488 -0.17800005 4285763738
0.25798199 -0.15519668 -0.17800005 4286094502
0.25798199 -0.15697849 -0.17800005 4285437342
0.25798199 -0.15876029 -0.17800005 4286949807
0.25798199 -0.1605421 -0.17800005 4286686635
0.25751773 -0.16213468 -0.17700006 4287476151
0.25751773 -0.16391389 -0.17700006 4288924101
0.25751773 -0.1656931 -0.17700006 4287541432
0.25705346 -0.16727526 -0.17600001 4286751405
0.25705346 -0.16905189 -0.17600001 4288133058
0.25705346 -0.17082849 -0.17600001 4290109408
0.2565892 -0.17240028 -0.17500003 4290107871
0.2565892 -0.17417429 -0.17500003 4284373622
0.25612494 -0.17573829 -0.17400004 4282799712
0.25612494 -0.17750971 -0.17400004 4282273368
0.25566068 -0.17906591 -0.17300005 4281552725
0.25566068 -0.18083474 -0.17300005 4281552471
0.25566068 -0.18260357 -0.17300005 4281552725
0.25566068 -0.1843724 -0.17300005 4281093203
0.25612494 -0.18636683 -0.17400004 4281093203
0.25612494 -0.18813825 -0.17400004 4281355607
0.25612494 -0.18990967 -0.17400004 4281355859
0.2565892 -0.19191448 -0.17500003 4281552977
0.2565892 -0.19368851 -0.17500003 4281618770
0.25705346 -0.19570112 -0.17600001 4281880404
0.2565892 -0.19723654 -0.17500003 4281551955
0.2565892 -0.19901057 -0.17500003 4281420885
0.25705346 -0.20103097 -0.17600001 4281552725
0.25705346 -0.20280758 -0.17600001 4281355346
0.2565892 -0.20433262 -0.17500003 4281552725
0.25612494 -0.20585246 -0.17400004 4281552723
0.25612494 -0.20762388 -0.17400004 4281355857
0.25612494 -0.2093953 -0.17400004 4281225041
0.25612494 -0.21116672 -0.17400004 4281225041
0.25612494 -0.21293814 -0.17400004 4281290318
0.25612494 -0.21470957 -0.17400004 4281290064
0.2565892 -0.21675076 -0.17500003 4281355859
0.2565892 -0.21852477 -0.17500003 4281290066
0.2565892 -0.2202988 -0.17500003 4281290066
0.2565892 -0.22207281 -0.17500003 4281421139
0.2565892 -0.22384684 -0.17500003 4281815127
0.2565892 -0.22562085 -0.17500003 4281814611
0.25705346 -0.22768022 -0.17600001 4281880658
0.25705346 -0.22945683 -0.17600001 4281880658
0.25705346 -0.23123345 -0.17600001 4281683793
0.25705346 -0.23301007 -0.17600001 4281552723
0.25751773 -0.23508243 -0.17700006 4281683793
0.25751773 -0.23686165 -0.17700006 4281355344
0.25751773 -0.23864086 -0.17700006 4281289551
0.25798199 -0.24072361 -0.17800005 4281289812
0.25798199 -0.24250542 -0.17800005 4281225043
0.25798199 -0.24428722 -0.17800005 4281356629
0.25798199 -0.24606903 -0.17800005 4281487445
0.25798199 -0.24785085 -0.17800005 4281487445
0.25798199 -0.24963266 -0.17800005 4281355344
0.25844625 -0.2517336 -0.17900003 4281355598
0.25844625 -0.25351799 -0.17900003 4281552205
0.25798199 -0.25497809 -0.17800005 4281749584
0.25798199 -0.25675991 -0.17800005 4281749584
0.25798199 -0.2585417 -0.17800005 4281355598
0.25798199 -0.26032352 -0.17800005 4281355857
0.25798199 -0.26210535 -0.17800005 4281552723
0.25751773 -0.26354986 -0.17700006 4281486162
0.25705346 -0.26498917 -0.17600001 4281486162
0.25705346 -0.26676577 -0.17600001 4281682773
0.25705346 -0.26854238 -0.17600001 4281814613
0.25705346 -0.27031901 -0.17600001 4281421391
0.25705346 -0.27209562 -0.17600001 4281289805
0.25705346 -0.27387223 -0.17600001 4281159502
0.2565892 -0.27529338 -0.17500003 4281225041
0.2565892 -0.27706739 -0.17500003 4281225041
0.2565892 -0.27884141 -0.17500003 4281159248
0.25705346 -0.28097871 -0.17600001 4281093455
0.25705346 -0.28275532 -0.17600001 4281224271
0.25705346 -0.28453192 -0.17600001 4281224273
0.25705346 -0.28630853 -0.17600001 4281027923
0.25751773 -0.28845882 -0.17700006 4281027923
0.25798199 -0.29061431 -0.17800005 4281093716
0.25798199 -0.29239613 -0.17800005 4281289814
0.25798199 -0.29417792 -0.17800005 4281223508
0.25844625 -0.29634377 -0.17900003 4281223506
0.25798199 -0.29774153 -0.17800005 4281420369
0.25798199 -0.29952335 -0.17800005 4281486162
0.2220372 0.27769428 -0.10400005 4281217848
0.22065219 0.27459189 -0.10100003 4288784297
0.22019053 0.27250841 -0.10000004 4288659382
0.22065219 0.27142826 -0.10100003 4288463036
0.22065219 0.26984644 -0.10100003 4288133556
0.22111383 0.26875851 -0.10200001 4288067763
0.2215755 0.26766536 -0.103 4287739563
0.22249883 0.26705572 -0.10500003 4287739050
0.22249883 0.2654635 -0.10500003 4287804073
0.2229605 0.26435477 -0.10600002 4287804073
0.2229605 0.26275998 -0.10600002 4288132523
0.22388384 0.26212177 -0.10800005 4288132776
0.22388384 0.26052177 -0.10800005 4288263592
0.22480714 0.25986794 -0.11000003 4288263592
0.22526881 0.25873324 -0.11100002 4288592041
0.22526881 0.25712544 -0.11100002 4288723114
0.22619215 0.25644827 -0.11300005 4288657834
0.22665381 0.25529799 -0.11400004 4288330155
0.22711545 0.25414249 -0.11500002 4288330155
0.22757712 0.25298181 -0.11600001 4288461488
0.22803876 0.25181594 -0.117 4288395695
0.22803876 0.25019258 -0.117 4288461488
0.22850046 0.24901894 -0.11800005 4288593074
0.22803876 0.24694583 -0.117 4288658867
0.22803876 0.24532247 -0.117 4288658867
0.22757712 0.24325719 -0.11600001 4288855729
0.22803876 0.24207571 -0.117 4289316280
0.22850046 0.2408891 -0.11800005 4289513659
0.22850046 0.23926315 -0.11800005 4289908164
0.22942376 0.23850021 -0.12000002 4290171336
0.22942376 0.23686904 -0.12000002 4289973957
0.2303471 0.23609057 -0.12200005 4289908164
0.23080876 0.23487794 -0.12300004 4289711555
0.2312704 0.23366013 -0.12400003 4289973957
0.23219374 0.23285565 -0.126 4290105543
0.23311707 0.23204079 -0.12800004 4289579969
0.23357871 0.23080221 -0.12900002 4289382590
0.23357871 0.22914767 -0.12900002 4289514176
0.23357871 0.22749314 -0.12900002 4289644992
0.23311707 0.22543305 -0.12800004 4289710785
0.23265541 0.22337815 -0.12700005 4289644992
0.23265541 0.2217288 -0.12700005 4289381820
0.23219374 0.21968168 -0.126 4289185211
0.23173207 0.21763977 -0.12500001 4289119420
0.2303471 0.21481793 -0.12200005 4289382843
0.22942376 0.21240163 -0.12000002 4289317050
0.22850046 0.20999572 -0.11800005 4289053878
0.22757712 0.20760019 -0.11600001 4288594357
0.22711545 0.20559725 -0.11500002 4288528566
0.22619215 0.20321992 -0.11300005 4288396982
0.22526881 0.20085296 -0.11100002 4288331702
0.22480714 0.19887079 -0.11000003 4288331702
0.22434551 0.19689381 -0.10900004 4288463288
0.22434551 0.19529122 -0.10900004 4288596158
0.22619215 0.19515501 -0.11300005 4287017124
0.22942376 0.19609 -0.12000002 4283464302
0.25573853 0.20616256 -0.17700006 4281358924
0.25666183 0.20507497 -0.17900003 4281227338
0.2571235 0.20363377 -0.18000002 4281030212
0.25758514 0.20218737 -0.18100001 4280898626
0.25758514 0.20039777 -0.18100001 4280701247
0.25758514 0.19860817 -0.18100001 4280701247
0.25758514 0.19681858 -0.18100001 4280372282
0.25758514 0.19502896 -0.18100001 4280502845
0.25758514 0.19323936 -0.18100001 4280501820
0.2571235 0.19112472 -0.18000002 4279972657
0.2571235 0.18933772 -0.18000002 4280038450
0.25666183 0.18723089 -0.17900003 4280103730
0.25666183 0.18544646 -0.17900003 4280169523
0.25620016 0.1833474 -0.17800005 4280169525
0.25620016 0.1815656 -0.17800005 4280235320
0.25573853 0.17947434 -0.17700006 4280235320
0.25573853 0.17769513 -0.17700006 4280235320
0.25573853 0.17591591 -0.17700006 4280235833
0.25573853 0.1741367 -0.17700006 4280301624
0.25527683 0.1720584 -0.17600001 4280499003
0.25527683 0.17028178 -0.17600001 4280760890
0.25527683 0.16850518 -0.17600001 4280760379
0.25527683 0.16672856 -0.17600001 4281154103
0.25527683 0.16495194 -0.17600001 4283183662
0.25527683 0.16317533 -0.17600001 4282854697
0.25573853 0.1616822 -0.17700006 4285471512
0.25573853 0.15990299 -0.17700006 4286190868
0.25573853 0.15812378 -0.17700006 4286585108
0.25620016 0.15662023 -0.17800005 4286453006
0.25620016 0.15483843 -0.17800005 4286453006
0.25620016 0.15305662 -0.17800005 4286584592
0.25620016 0.1512748 -0.17800005 4286518797
0.25666183 0.14975829 -0.17900003 4286714636
0.25666183 0.14797388 -0.17900003 4286780429
0.25620016 0.14592938 -0.17800005 4286846222
0.25666183 0.14440507 -0.17900003 4286780944
0.25666183 0.14262065 -0.17900003 4286583825
0.25666183 0.14083625 -0.17900003 4286714897
0.25666183 0.13905184 -0.17900003 4286649104
0.2571235 0.13751455 -0.18000002 4286714384
0.25758514 0.13597205 -0.18100001 4286780177
0.25804684 0.13442437 -0.18200006 4286845200
0.25573853 -0.14612176 -0.17700006 4286756280
0.25666183 -0.1482379 -0.17900003 4286756016
0.25620016 -0.14985125 -0.17800005 4285765023
0.25666183 -0.15180671 -0.17900003 4286159781
0.25666183 -0.15359113 -0.17900003 4285763738
0.25666183 -0.15537554 -0.17900003 4286094502
0.25666183 -0.15715994 -0.17900003 4285437342
0.25666183 -0.15894435 -0.17900003 4286949807
0.25620016 -0.1605421 -0.17800005 4286686635
0.25620016 -0.16232392 -0.17800005 4287476151
0.25666183 -0.16429757 -0.17900003 4288924101
0.25620016 -0.16588753 -0.17800005 4287541432
0.25620016 -0.16766936 -0.17800005 4286751405
0.25527683 -0.16905189 -0.17600001 4288133058
0.25527683 -0.17082849 -0.17600001 4290109408
0.25527683 -0.17260511 -0.17600001 4290107871
0.25481519 -0.17417429 -0.17500003 4284373622
0.25435352 -0.17573829 -0.17400004 4282799712
0.25435352 -0.17750971 -0.17400004 4282273368
0.25435352 -0.17928115 -0.17400004 4281552725
0.25435352 -0.18105257 -0.17400004 4281552471
0.25435352 -0.18282399 -0.17400004 4281552725
0.25435352 -0.18459541 -0.17400004 4281093203
0.25435352 -0.18636683 -0.17400004 4281093203
0.25435352 -0.18813825 -0.17400004 4281355607
0.25481519 -0.19014047 -0.17500003 4281355859
0.25481519 -0.19191448 -0.17500003 4281552977
0.25527683 -0.1939245 -0.17600001 4281618770
0.25527683 -0.19570112 -0.17600001 4281880404
0.25527683 -0.19747773 -0.17600001 4281551955
0.25527683 -0.19925435 -0.17600001 4281420885
0.25527683 -0.20103097 -0.17600001 4281552725
0.25527683 -0.20280758 -0.17600001 4281355346
0.25527683 -0.20458421 -0.17600001 4281552725
0.25527683 -0.20636082 -0.17600001 4281552723
0.25527683 -0.20813744 -0.17600001 4281355857
0.25527683 -0.20991406 -0.17600001 4281225041
0.25527683 -0.21169068 -0.17600001 4281225041
0.25527683 -0.21346729 -0.17600001 4281290318
0.25527683 -0.21524391 -0.17600001 4281290064
0.25527683 -0.21702053 -0.17600001 4281355859
0.25527683 -0.21879713 -0.17600001 4281290066
0.25527683 -0.22057375 -0.17600001 4281290066
0.25527683 -0.22235037 -0.17600001 4281421139
0.25527683 -0.22412698 -0.17600001 4281815127
0.25527683 -0.2259036 -0.17600001 4281814611
0.25527683 -0.22768022 -0.17600001 4281880658
0.25527683 -0.22945683 -0.17600001 4281880658
0.25573853 -0.23152401 -0.17700006 4281683793
0.25573853 -0.23330322 -0.17700006 4281552723
0.25620016 -0.23537818 -0.17800005 4281683793
0.25620016 -0.23715998 -0.17800005 4281355344
0.25620016 -0.23894179 -0.17800005 4281289551
0.25666183 -0.24102713 -0.17900003 4281289812
0.25666183 -0.24281155 -0.17900003 4281225043
0.25666183 -0.24459594 -0.17900003 4281356629
0.25666183 -0.24638036 -0.17900003 4281487445
0.25666183 -0.24816476 -0.17900003 4281487445
0.25666183 -0.24994917 -0.17900003 4281355344
0.25666183 -0.2517336 -0.17900003 4281355598
0.25666183 -0.25351799 -0.17900003 4281552205
0.25666183 -0.2553024 -0.17900003 4281749584
0.25666183 -0.25708681 -0.17900003 4281749584
0.25666183 -0.25887123 -0.17900003 4281355598
0.25666183 -0.26065564 -0.17900003 4281355857
0.25666183 -0.26244003 -0.17900003 4281552723
0.25620016 -0.26388714 -0.17800005 4281355344
0.25620016 -0.26566896 -0.17800005 4281486162
0.25573853 -0.26710829 -0.17700006 4281682773
0.25527683 -0.26854238 -0.17600001 4281814613
0.25527683 -0.27031901 -0.17600001 4281421391
0.25527683 -0.27209562 -0.17600001 4281289805
0.25527683 -0.27387223 -0.17600001 4281159502
0.25527683 -0.27564886 -0.17600001 4281225041
0.25527683 -0.27742547 -0.17600001 4281225041
0.25527683 -0.27920207 -0.17600001 4281159248
0.25527683 -0.28097871 -0.17600001 4281093455
0.25527683 -0.28275532 -0.17600001 4281224271
0.25527683 -0.28453192 -0.17600001 4281224273
0.25527683 -0.28630853 -0.17600001 4281027923
0.25573853 -0.28845882 -0.17700006 4281027923
0.25573853 -0.29023805 -0.17700006 4281093716
0.25620016 -0.29239613 -0.17800005 4281289814
0.25620016 -0.29417792 -0.17800005 4281223508
0.25620016 -0.29595974 -0.17800005 4281223506
0.25573853 -0.29735491 -0.17700006 4281420369
0.25620016 -0.29952335 -0.17800005 4281486162
0.22228384 0.28132167 -0.10800005 4279772964
0.2199885 0.27718741 -0.103 4281217848
0.21907037 0.27459189 -0.10100003 4288784297
0.21907037 0.27301008 -0.10100003 4288659382
0.21952945 0.27192733 -0.10200001 4288463036
0.21952945 0.27034292 -0.10200001 4288331450
0.2199885 0.26925236 -0.103 4288067763
0.22090665 0.26864791 -0.10500003 4287739563
0.22136569 0.26754439 -0.10600002 4287739050
0.22182477 0.26643565 -0.10700001 4287804073
0.22228384 0.26532176 -0.10800005 4287804073
0.22274292 0.26420262 -0.10900004 4288132523
0.22320196 0.2630783 -0.11000003 4288132776
0.22366101 0.26194879 -0.11100002 4288263592
0.22366101 0.26034102 -0.11100002 4288263592
0.22457916 0.25967422 -0.11300005 4288592041
0.22457916 0.25806126 -0.11300005 4288723114
0.22549728 0.25737885 -0.11500002 4288657834
0.22595635 0.25622335 -0.11600001 4288330155
0.22595635 0.25460258 -0.11600001 4288330155
0.2264154 0.25343931 -0.117 4288461488
0.22687447 0.25227088 -0.11800005 4288395695
0.22687447 0.25064489 -0.11800005 4288461488
0.22687447 0.24901894 -0.11800005 4288593074
0.22733355 0.24784008 -0.11900003 4288658867
0.22687447 0.245767 -0.11800005 4288658867
0.22687447 0.24414104 -0.11800005 4288855729
0.22687447 0.24251506 -0.11800005 4289316280
0.22733355 0.24132583 -0.11900003 4289513659
0.22779259 0.24013138 -0.12000002 4289908164
0.22871074 0.23936328 -0.12200005 4290171336
0.22916982 0.23815584 -0.12300004 4289973957
0.22962886 0.23694322 -0.12400003 4289908164
0.23054698 0.23614913 -0.126 4289711555
0.23100606 0.23492354 -0.12700005 4289842371
0.23192418 0.23411128 -0.12900002 4290105543
0.23284233 0.23328865 -0.13100006 4289579969
0.23376045 0.23245561 -0.13300003 4289382590
0.23376045 0.23079067 -0.13300003 4289514176
0.23376045 0.22912574 -0.13300003 4289644992
0.23376045 0.2274608 -0.13300003 4289710785
0.23376045 0.22579589 -0.13300003 4289644992
0.2333014 0.22373059 -0.13200004 4289381820
0.23284233 0.22167051 -0.13100006 4289185211
0.23008794 0.21435148 -0.12500001 4289317050
0.22871074 0.21154521 -0.12200005 4289053878
0.22779259 0.2091393 -0.12000002 4288594357
0.2264154 0.20636159 -0.117 4288528566
0.22549728 0.20397907 -0.11500002 4288396982
0.22457916 0.20160693 -0.11300005 4288331702
0.22320196 0.19887079 -0.11000003 4288331702
0.22320196 0.1972656 -0.11000003 4288463288
0.22320196 0.19566041 -0.11000003 4288596158
0.22412008 0.19478841 -0.112 4287017124
0.22733355 0.19572601 -0.11900003 4283464302
0.25166395 0.2061867 -0.17200001 4281556303
0.25441837 0.20651096 -0.17800005 4281358924
0.25579554 0.20576659 -0.18100001 4281227338
0.25625461 0.20432021 -0.18200006 4281030212
0.25625461 0.20252801 -0.18200006 4280898626
0.25625461 0.20073581 -0.18200006 4280701247
0.25625461 0.19894361 -0.18200006 4280701247
0.25625461 0.19715141 -0.18200006 4280372282
0.25625461 0.19535922 -0.18200006 4280502845
0.25625461 0.19356701 -0.18200006 4280501820
0.25579554 0.19144976 -0.18100001 4279972657
0.25579554 0.18966016 -0.18100001 4280038450
0.25533649 0.18755072 -0.18000002 4280103730
0.25533649 0.18576369 -0.18000002 4280169523
0.25487742 0.18366204 -0.17900003 4280169525
0.25487742 0.18187764 -0.17900003 4280235320
0.25487742 0.18009323 -0.17900003 4280235320
0.25487742 0.17830881 -0.17900003 4280235320
0.25441837 0.17622016 -0.17800005 4280235833
0.25441837 0.17443834 -0.17800005 4280301624
0.25441837 0.17265654 -0.17800005 4280499003
0.25441837 0.17087473 -0.17800005 4280760890
0.2539593 0.16879906 -0.17700006 4280760379
0.25441837 0.1673111 -0.17800005 4281154103
0.25441837 0.1655293 -0.17800005 4283183662
0.25441837 0.16374749 -0.17800005 4282854697
0.25441837 0.16196567 -0.17800005 4285471512
0.25441837 0.16018386 -0.17800005 4286190868
0.25441837 0.15840206 -0.17800005 4286585108
0.25441837 0.15662023 -0.17800005 4286453006
0.25441837 0.15483843 -0.17800005 4286453006
0.25441837 0.15305662 -0.17800005 4286584592
0.25487742 0.15154269 -0.17900003 4286518797
0.25487742 0.14975829 -0.17900003 4286714636
0.25487742 0.14797388 -0.17900003 4286780429
0.25487742 0.14618947 -0.17900003 4286846222
0.25487742 0.14440507 -0.17900003 4286780944
0.25487742 0.14262065 -0.17900003 4286583825
0.25487742 0.14083625 -0.17900003 4286714897
0.25487742 0.13905184 -0.17900003 4286649104
0.25533649 0.13751455 -0.18000002 4286714384
0.25579554 0.13597205 -0.18100001 4286780177
0.25625461 0.13442437 -0.18200006 4286845200
0.25625461 0.13263218 -0.18200006 4287041298
0.25717273 0.13131343 -0.18400003 4287041298
0.25763181 0.12975015 -0.18500002 4286975251
0.25809085 0.12818168 -0.186 4286975505
0.25533649 -0.14304535 -0.18000002 4284056979
0.25533649 -0.14483236 -0.18000002 4287476923
0.25533649 -0.14661936 -0.18000002 4286756280
0.25533649 -0.14840637 -0.18000002 4286756016
0.25487742 -0.15002231 -0.17900003 4285765023
0.25487742 -0.15180671 -0.17900003 4286159781
0.25487742 -0.15359113 -0.17900003 4285763738
0.25533649 -0.15555438 -0.18000002 4286094502
0.25533649 -0.15734139 -0.18000002 4285437342
0.25487742 -0.15894435 -0.17900003 4286949807
0.25487742 -0.16072875 -0.17900003 4286686635
0.25487742 -0.16251317 -0.17900003 4287476151
0.25487742 -0.16429757 -0.17900003 4288924101
0.25487742 -0.16608198 -0.17900003 4287541432
0.25487742 -0.16786639 -0.17900003 4286751405
0.25441837 -0.16945116 -0.17800005 4288133058
0.2539593 -0.17103074 -0.17700006 4290109408
0.2539593 -0.17280996 -0.17700006 4290107871
0.25350022 -0.17438173 -0.17600001 4284373622
0.25350022 -0.17615834 -0.17600001 4282799712
0.25350022 -0.17793496 -0.17600001 4282273368
0.25350022 -0.17971158 -0.17600001 4281552725
0.25304115 -0.18127038 -0.17500003 4281552471
0.25304115 -0.18304439 -0.17500003 4281552725
0.25304115 -0.18481842 -0.17500003 4281093203
0.25350022 -0.18681803 -0.17600001 4281093203
0.25350022 -0.18859465 -0.17600001 4281355607
0.25350022 -0.19037127 -0.17600001 4281355859
0.25350022 -0.19214788 -0.17600001 4281552977
0.2539593 -0.19416052 -0.17700006 4281618770
0.2539593 -0.19593973 -0.17700006 4281880404
0.2539593 -0.19771895 -0.17700006 4281551955
0.2539593 -0.19949816 -0.17700006 4281420885
0.2539593 -0.20127738 -0.17700006 4281552725
0.2539593 -0.20305659 -0.17700006 4281355346
0.2539593 -0.2048358 -0.17700006 4281552725
0.25350022 -0.20636082 -0.17600001 4281552723
0.2539593 -0.20839423 -0.17700006 4281355857
0.25350022 -0.20991406 -0.17600001 4281225041
0.25350022 -0.21169068 -0.17600001 4281225041
0.25350022 -0.21346729 -0.17600001 4281290318
0.2539593 -0.21551108 -0.17700006 4281290064
0.2539593 -0.2172903 -0.17700006 4281355859
0.2539593 -0.21906951 -0.17700006 4281290066
0.2539593 -0.22084872 -0.17700006 4281290066
0.2539593 -0.22262794 -0.17700006 4281421139
0.2539593 -0.22440715 -0.17700006 4281815127
0.2539593 -0.22618636 -0.17700006 4281814611
0.2539593 -0.22796558 -0.17700006 4281880658
0.25441837 -0.23003274 -0.17800005 4281880658
0.25441837 -0.23181455 -0.17800005 4281683793
0.25441837 -0.23359635 -0.17800005 4281552723
0.25487742 -0.2356739 -0.17900003 4281683793
0.25487742 -0.23745832 -0.17900003 4281355344
0.25487742 -0.23924272 -0.17900003 4281289551
0.25533649 -0.24133065 -0.18000002 4281289812
0.25533649 -0.24311766 -0.18000002 4281225043
0.25579554 -0.24521339 -0.18100001 4281356629
0.25579554 -0.247003 -0.18100001 4281487445
0.25579554 -0.2487926 -0.18100001 4281487445
0.25579554 -0.25058222 -0.18100001 4281355344
0.25579554 -0.25237182 -0.18100001 4281355598
0.25625461 -0.25448313 -0.18200006 4281552205
0.25579554 -0.25595102 -0.18100001 4281552205
0.25579554 -0.25774062 -0.18100001 4281749584
0.25579554 -0.25953022 -0.18100001 4281355598
0.25579554 -0.26131982 -0.18100001 4281355857
0.25533649 -0.26277474 -0.18000002 4281552723
0.25487742 -0.26422444 -0.17900003 4281355344
0.25487742 -0.26600885 -0.17900003 4281486162
0.25487742 -0.26779327 -0.17900003 4281682773
0.25441837 -0.26923257 -0.17800005 4281814613
0.2539593 -0.27066672 -0.17700006 4281421391
0.2539593 -0.27244592 -0.17700006 4281289805
0.2539593 -0.27422515 -0.17700006 4281159502
0.2539593 -0.27600434 -0.17700006 4281225041
0.2539593 -0.27778357 -0.17700006 4281225041
0.25350022 -0.27920207 -0.17600001 4281159248
0.25350022 -0.28097871 -0.17600001 4281093455
0.2539593 -0.2831212 -0.17700006 4281224271
0.2539593 -0.2849004 -0.17700006 4281224273
0.2539593 -0.28667963 -0.17700006 4281027923
0.25441837 -0.28883249 -0.17800005 4281027923
0.25487742 -0.29099056 -0.17900003 4281093716
0.25487742 -0.29277498 -0.17900003 4281289814
0.25487742 -0.29455939 -0.17900003 4281223508
0.25487742 -0.29634377 -0.17900003 4281223506
0.25487742 -0.29812819 -0.17900003 4281420369
0.25487742 -0.2999126 -0.17900003 4281486162
0.22205323 0.2844578 -0.11100002 4279772964
0.21931443 0.27979332 -0.10500003 4280494125
0.21840149 0.27718741 -0.103 4281217848
0.21794504 0.27509615 -0.10200001 4288784297
0.21794504 0.27351174 -0.10200001 4288659382
0.21794504 0.27192733 -0.10200001 4288463036
0.21840149 0.27083936 -0.103 4288331450
0.21931443 0.2702401 -0.10500003 4288067763
0.21977091 0.26913917 -0.10600002 4287739563
0.22068384 0.26852173 -0.10800005 4287739050
0.22114033 0.2674078 -0.10900004 4287804073
0.22159678 0.2662887 -0.11000003 4287804073
0.22205323 0.26516438 -0.11100002 4288132523
0.22250968 0.26403487 -0.112 4288132776
0.22296619 0.2629002 -0.11300005 4288263592
0.22342265 0.26176029 -0.11400004 4288263592
0.2238791 0.2606152 -0.11500002 4288592041
0.2238791 0.25899702 -0.11500002 4288788907
0.22433558 0.25784412 -0.11600001 4288657834
0.22479203 0.25668606 -0.117 4288330155
0.22524852 0.25552282 -0.11800005 4288330155
0.22524852 0.25389683 -0.11800005 4288461488
0.22616145 0.25318068 -0.12000002 4288395695
0.22616145 0.25154951 -0.12000002 4288461488
0.22616145 0.24991834 -0.12000002 4288593074
0.22616145 0.24828717 -0.12000002 4288658867
0.22616145 0.24665603 -0.12000002 4288658867
0.22616145 0.24502486 -0.12000002 4288855729
0.2266179 0.24383301 -0.12100001 4289316280
0.22707438 0.242636 -0.12200005 4289513659
0.22753087 0.24143377 -0.12300004 4289908164
0.22798732 0.24022633 -0.12400003 4290171336
0.22844377 0.2390137 -0.12500001 4289973957
0.22935674 0.23822224 -0.12700005 4289908164
0.23026964 0.23742035 -0.12900002 4289711555
0.23118261 0.23660812 -0.13100006 4289842371
0.23209551 0.23578545 -0.13300003 4290105543
0.23300844 0.23495239 -0.13500001 4289908164
0.23346493 0.23369566 -0.13600005 4289382590
0.23392138 0.23243368 -0.13700004 4289514176
0.23392138 0.23075837 -0.13700004 4289644992
0.23392138 0.22908303 -0.13700004 4289710785
0.23392138 0.22740772 -0.13700004 4289644992
0.23392138 0.22573242 -0.13700004 4289381820
0.23346493 0.22365934 -0.13600005 4289185211
0.23255199 0.22119626 -0.13400002 4289119420
0.23163906 0.21874362 -0.13200004 4289382843
0.23026964 0.21591136 -0.12900002 4289317050
0.22935674 0.21348208 -0.12700005 4289053878
0.22798732 0.2106784 -0.12400003 4288594357
0.22616145 0.20750813 -0.12000002 4288528566
0.22479203 0.20473823 -0.117 4288396982
0.2238791 0.2023609 -0.11500002 4288331702
0.22250968 0.19961955 -0.112 4288331702
0.22205323 0.19763738 -0.11100002 4288463288
0.22205323 0.1960296 -0.11100002 4288596158
0.22250968 0.19478841 -0.112 4287017124
0.22524852 0.19536202 -0.11800005 4283464302
0.22935674 0.19698864 -0.12700005 4282411095
0.23894253 0.20117025 -0.14800002 4282016337
0.24396369 0.20335604 -0.15900005 4281622349
0.24852836 0.20513368 -0.16900004 4281556303
0.25172362 0.20581412 -0.17600001 4281293131
0.25400594 0.20576659 -0.18100001 4281227338
0.25446242 0.20432021 -0.18200006 4281030212
0.25491887 0.20286863 -0.18300004 4280898626
0.25491887 0.20107383 -0.18300004 4280701247
0.25491887 0.19927904 -0.18300004 4280701247
0.25491887 0.19748424 -0.18300004 4280372282
0.25491887 0.19568944 -0.18300004 4280502845
0.25446242 0.19356701 -0.18200006 4280501820
0.25446242 0.19177482 -0.18200006 4279972657
0.25446242 0.18998261 -0.18200006 4280038450
0.25446242 0.18819042 -0.18200006 4280103730
0.25446242 0.18639819 -0.18200006 4280169523
0.25446242 0.18460599 -0.18200006 4280169525
0.25400594 0.18250172 -0.18100001 4280301111
0.25354949 0.18040268 -0.18000002 4280235320
0.253093 0.17830881 -0.17900003 4280235320
0.253093 0.17652442 -0.17900003 4280235833
0.253093 0.17474 -0.17900003 4280301624
0.253093 0.17295559 -0.17900003 4280499003
0.25263655 0.17087473 -0.17800005 4280760890
0.25263655 0.16909291 -0.17800005 4280760379
0.253093 0.16760238 -0.17900003 4281154103
0.25263655 0.1655293 -0.17800005 4283183662
0.2521801 0.16346142 -0.17700006 4282854697
0.25263655 0.16196567 -0.17800005 4285471512
0.25263655 0.16018386 -0.17800005 4286190868
0.25263655 0.15840206 -0.17800005 4286585108
0.25263655 0.15662023 -0.17800005 4286453006
0.25263655 0.15483843 -0.17800005 4286453006
0.25263655 0.15305662 -0.17800005 4286584592
0.25263655 0.1512748 -0.17800005 4286518797
0.25263655 0.14949299 -0.17800005 4286714636
0.253093 0.14797388 -0.17900003 4286780429
0.253093 0.14618947 -0.17900003 4286846222
0.253093 0.14440507 -0.17900003 4286780944
0.253093 0.14262065 -0.17900003 4286583825
0.253093 0.14083625 -0.17900003 4286714897
0.253093 0.13905184 -0.17900003 4286649104
0.25354949 0.13751455 -0.18000002 4286714384
0.25400594 0.13597205 -0.18100001 4286780177
0.25446242 0.13442437 -0.18200006 4286845200
0.25446242 0.13263218 -0.18200006 4287041298
0.25491887 0.13107669 -0.18300004 4287041298
0.25583181 0.12975015 -0.18500002 4286975251
0.2521801 -0.18170603 -0.17700006 4281552471
0.2521801 -0.18348524 -0.17700006 4281552725
0.25172362 -0.18504143 -0.17600001 4281093203
0.2521801 -0.18704367 -0.17700006 4281093203
0.2521801 -0.18882288 -0.17700006 4281355607
0.25263655 -0.1908329 -0.17800005 4281355859
0.25263655 -0.1926147 -0.17800005 4281552977
0.253093 -0.19463252 -0.17900003 4281618770
0.253093 -0.19641691 -0.17900003 4281880404
0.253093 -0.19820133 -0.17900003 4281551955
0.253093 -0.19998573 -0.17900003 4281420885
0.253093 -0.20177014 -0.17900003 4281552725
0.253093 -0.20355456 -0.17900003 4281355346
0.25263655 -0.20508739 -0.17800005 4281552725
0.25263655 -0.2068692 -0.17800005 4281552723
0.25263655 -0.20865101 -0.17800005 4281355857
0.25263655 -0.21043281 -0.17800005 4281225041
0.25263655 -0.21221463 -0.17800005 4281225041
0.25263655 -0.21399644 -0.17800005 4281290318
0.25263655 -0.21577825 -0.17800005 4281290064
0.25263655 -0.21756007 -0.17800005 4281355859
0.25263655 -0.21934187 -0.17800005 4281290066
0.25263655 -0.22112368 -0.17800005 4281290066
0.25263655 -0.2229055 -0.17800005 4281421139
0.25263655 -0.22468731 -0.17800005 4281749334
0.25263655 -0.22646911 -0.17800005 4281814611
0.25263655 -0.22825092 -0.17800005 4281880658
0.25263655 -0.23003274 -0.17800005 4281880658
0.253093 -0.23210509 -0.17900003 4281683793
0.253093 -0.23388951 -0.17900003 4281552723
0.253093 -0.2356739 -0.17900003 4281683793
0.253093 -0.23745832 -0.17900003 4281355344
0.25354949 -0.23954366 -0.18000002 4281289551
0.25400594 -0.24163419 -0.18100001 4281289812
0.25400594 -0.24342379 -0.18100001 4281225043
0.25446242 -0.24552214 -0.18200006 4281356629
0.25446242 -0.24731433 -0.18200006 4281487445
0.25446242 -0.24910654 -0.18200006 4281487445
0.25446242 -0.25089875 -0.18200006 4281355344
0.25491887 -0.25301006 -0.18300004 4281355598
0.25491887 -0.25480485 -0.18300004 4281552205
0.25491887 -0.25659966 -0.18300004 4281552205
0.25446242 -0.25806755 -0.18200006 4281749584
0.25446242 -0.25985974 -0.18200006 4281355598
0.25446242 -0.26165193 -0.18200006 4281355857
0.25446242 -0.26344416 -0.18200006 4281552723
0.25400594 -0.26489905 -0.18100001 4281355344
0.25400594 -0.26668864 -0.18100001 4281486162
0.253093 -0.26779327 -0.17900003 4281682773
0.253093 -0.26957768 -0.17900003 4281814613
0.253093 -0.27136207 -0.17900003 4281421391
0.253093 -0.27314648 -0.17900003 4281289805
0.25263655 -0.27457801 -0.17800005 4281159502
0.25263655 -0.27635983 -0.17800005 4281225041
0.25263655 -0.27814165 -0.17800005 4281225041
0.25263655 -0.27992344 -0.17800005 4281159248
0.25263655 -0.28170526 -0.17800005 4281093455
0.25263655 -0.28348705 -0.17800005 4281224271
0.25263655 -0.28526887 -0.17800005 4281224273
0.253093 -0.28742173 -0.17900003 4281027923
0.253093 -0.28920615 -0.17900003 4281027923
0.253093 -0.29099056 -0.17900003 4281093716
0.253093 -0.29277498 -0.17900003 4281289814
0.253093 -0.29455939 -0.17900003 4281223508
0.253093 -0.29634377 -0.17900003 4281223506
0.253093 -0.29812819 -0.17900003 4281420369
0.253093 -0.2999126 -0.17900003 4281486162
0.2181761 0.28189757 -0.10600002 4279772964
0.21636063 0.27826497 -0.10200001 4280494125
0.21590677 0.27617371 -0.10100003 4281217848
0.21590677 0.27459189 -0.10100003 4288784297
0.21636063 0.27351174 -0.10200001 4288659382
0.21681449 0.27242637 -0.103 4288463036
0.21726838 0.27133587 -0.10400005 4288331450
0.2181761 0.27073398 -0.10600002 4288067763
0.21908385 0.27012172 -0.10800005 4287739563
0.21953773 0.26901039 -0.10900004 4287739050
0.21999159 0.26789388 -0.11000003 4287804073
0.22044545 0.26677215 -0.11100002 4287804073
0.2213532 0.26612616 -0.11300005 4288132523
0.22180706 0.26499143 -0.11400004 4288132776
0.22226092 0.26385155 -0.11500002 4288263592
0.22271478 0.26270646 -0.11600001 4288263592
0.22271478 0.26108569 -0.11600001 4288592041
0.22316867 0.25993279 -0.117 4288788907
0.22362256 0.25877473 -0.11800005 4288657834
0.22362256 0.25714877 -0.11800005 4288330155
0.22453028 0.25644299 -0.12000002 4288330155
0.22453028 0.25481182 -0.12000002 4288461488
0.22498414 0.25363559 -0.12100001 4288395695
0.22543803 0.25245413 -0.12200005 4288461488
0.22543803 0.25081778 -0.12200005 4288593074
0.22543803 0.24918142 -0.12200005 4288658867
0.22543803 0.24754506 -0.12200005 4288658867
0.22543803 0.24590871 -0.12200005 4288855729
0.22589189 0.24471167 -0.12300004 4289316280
0.22634575 0.24350944 -0.12400003 4289513659
0.22679964 0.242302 -0.12500001 4289908164
0.22770739 0.24152094 -0.12700005 4290171336
0.22816125 0.24030051 -0.12800004 4289973957
0.22906896 0.23950124 -0.13000001 4289908164
0.22997671 0.23869157 -0.13200004 4289711555
0.23088446 0.23787153 -0.13400002 4289842371
0.23179221 0.23704109 -0.13600005 4290105543
0.23315379 0.23661619 -0.13900001 4289908164
0.23360768 0.23534903 -0.14 4289382590
0.23360768 0.23366591 -0.14 4289514176
0.23406157 0.23239097 -0.14100005 4289644992
0.23451543 0.23111081 -0.14200003 4289710785
0.23451543 0.22942251 -0.14200003 4289644992
0.23451543 0.22773421 -0.14200003 4289381820
0.23406157 0.22564813 -0.14100005 4289185211
0.23360768 0.22356725 -0.14 4289119420
0.23224607 0.22070646 -0.13700004 4289382843
0.23088446 0.21786121 -0.13400002 4289317050
0.22952285 0.21503158 -0.13100006 4289053878
0.22770739 0.21183275 -0.12700005 4288594357
0.22634575 0.20903686 -0.12400003 4288528566
0.22453028 0.20587698 -0.12000002 4288396982
0.22271478 0.20273787 -0.11600001 4288396982
0.22180706 0.20036834 -0.11400004 4288331702
0.22089931 0.19800916 -0.112 4288463288
0.22044545 0.1960296 -0.11100002 4288596158
0.22044545 0.19442181 -0.11100002 4287017124
0.22362256 0.19536202 -0.11800005 4283464302
0.2272535 0.19662723 -0.126 4282411095
0.23723865 0.20117025 -0.14800002 4282016337
0.24223122 0.20335604 -0.15900005 4281622349
0.24676991 0.20513368 -0.16900004 4281556303
0.24994698 0.20581412 -0.17600001 4281293131
0.25267023 0.20611241 -0.18200006 4281227338
0.25267023 0.20432021 -0.18200006 4281030212
0.25312409 0.20286863 -0.18300004 4280898626
0.25357795 0.20141184 -0.18400003 4280701247
0.25357795 0.19961445 -0.18400003 4280701247
0.25357795 0.19781706 -0.18400003 4280372282
0.25357795 0.19601966 -0.18400003 4280502845
0.25357795 0.19422227 -0.18400003 4280501820
0.25357795 0.19242488 -0.18400003 4279972657
0.25357795 0.19062749 -0.18400003 4280038450
0.25267023 0.18819042 -0.18200006 4280103730
0.25267023 0.18639819 -0.18200006 4280169523
0.25267023 0.18460599 -0.18200006 4280169525
0.25267023 0.18281379 -0.18200006 4280301111
0.25267023 0.18102159 -0.18200006 4280235320
0.25221634 0.17892252 -0.18100001 4280235320
0.25176248 0.17682867 -0.18000002 4280235833
0.25130862 0.17474 -0.17900003 4280301624
0.25130862 0.17295559 -0.17900003 4280499003
0.25130862 0.17117119 -0.17900003 4280760890
0.25130862 0.16938677 -0.17900003 4280760379
0.25085473 0.1673111 -0.17800005 4281154103
0.25085473 0.1655293 -0.17800005 4283183662
0.25085473 0.16374749 -0.17800005 4282854697
0.25085473 0.16196567 -0.17800005 4285471512
0.25085473 0.16018386 -0.17800005 4286190868
0.25085473 0.15840206 -0.17800005 4286585108
0.25130862 0.15689592 -0.17900003 4286453006
0.25130862 0.15511151 -0.17900003 4286453006
0.25130862 0.15332711 -0.17900003 4286584592
0.25130862 0.15154269 -0.17900003 4286518797
0.25130862 0.14975829 -0.17900003 4286714636
0.25130862 0.14797388 -0.17900003 4286780429
0.25130862 0.14618947 -0.17900003 4286846222
0.25130862 0.14440507 -0.17900003 4286780944
0.25176248 0.14287557 -0.18000002 4286583825
0.25176248 0.14108856 -0.18000002 4286714897
0.25176248 0.13930155 -0.18000002 4286649104
0.25176248 0.13751455 -0.18000002 4286714384
0.25267023 0.13621658 -0.18200006 4286780177
0.25267023 0.13442437 -0.18200006 4286845200
0.25267023 0.13263218 -0.18200006 4287041298
0.25312409 0.13107669 -0.18300004 4287041298
0.25357795 0.12951602 -0.18400003 4286975251
0.25403181 0.12795016 -0.18500002 4286975505
0.25403181 0.12615016 -0.18500002 4287107089
0.2544857 0.12457651 -0.186 4286975503
0.25403181 0.12255017 -0.18500002 4287107089
0.2544857 0.12097132 -0.186 4286975503
0.2544857 0.11916874 -0.186 4287041296
0.2544857 0.11736615 -0.186 4287041550
0.2544857 0.11556356 -0.186 4287041550
0.2544857 0.11376096 -0.186 4287041550
0.2544857 0.11195837 -0.186 4287107089
0.2544857 0.11015579 -0.186 4287041809
0.2544857 0.1083532 -0.186 4287041811
0.2544857 0.1065506 -0.186 4287041811
0.25403181 0.10455026 -0.18500002 4286976016
0.25403181 0.10275027 -0.18500002 4286910475
0.25403181 0.10095027 -0.18500002 4286648075
0.25493959 -0.07918334 -0.18700005 4288702570
0.25539345 -0.081058294 -0.18800004 4288439146
0.25539345 -0.082866073 -0.18800004 4288899697
0.25539345 -0.084673859 -0.18800004 4289230710
0.25584731 -0.088369586 -0.18900003 4289105286
0.25584731 -0.090179965 -0.18900003 4288643970
0.25584731 -0.091990352 -0.18900003 4288709763
0.25584731 -0.093800731 -0.18900003 4288446843
0.25539345 -0.095520563 -0.18800004 4288380796
0.25539345 -0.09732835 -0.18800004 4288443509
0.25493959 -0.099040397 -0.18700005 4288774786
0.2544857 -0.10074724 -0.186 4288774786
0.2544857 -0.10254983 -0.186 4288117376
0.2544857 -0.10435241 -0.186 4288182148
0.2544857 -0.10615501 -0.186 4287917441
0.25403181 -0.10784887 -0.18500002 4287980657
0.25403181 -0.10964886 -0.18500002 4287388520
0.2544857 -0.11156278 -0.186 4287381065
0.2544857 -0.11336537 -0.186 4287640896
0.2544857 -0.11516796 -0.186 4287772480
0.2544857 -0.11697055 -0.186 4287772480
0.25493959 -0.11889746 -0.18700005 4287772732
0.25539345 -0.12082955 -0.18800004 4288101697
0.25539345 -0.12263734 -0.18800004 4287121754
0.25539345 -0.12444512 -0.18800004 4290893786
0.25584731 -0.12638761 -0.18900003 4291025372
0.25584731 -0.128198 -0.18900003 4289848553
0.25584731 -0.13000837 -0.18900003 4289715170
0.25584731 -0.13181876 -0.18900003 4286423983
0.25584731 -0.13362914 -0.18900003 4285303955
0.25584731 -0.13543952 -0.18900003 4285369748
0.25584731 -0.1372499 -0.18900003 4286028184
0.25539345 -0.1389074 -0.18800004 4284910226
0.25493959 -0.14055972 -0.18700005 4285309097
0.2544857 -0.14220682 -0.186 4284254358
0.25403181 -0.14384873 -0.18500002 4284056979
0.25357795 -0.14548546 -0.18400003 4287476923
0.25357795 -0.14728285 -0.18400003 4286624694
0.25312409 -0.14891177 -0.18300004 4286756016
0.25267023 -0.15053551 -0.18200006 4285765023
0.25267023 -0.15232772 -0.18200006 4286159781
0.25267023 -0.15411991 -0.18200006 4285763738
0.25267023 -0.15591212 -0.18200006 4286094502
0.25267023 -0.15770431 -0.18200006 4285437342
0.25221634 -0.15931244 -0.18100001 4286949807
0.25221634 -0.16110206 -0.18100001 4286686635
0.25176248 -0.16270241 -0.18000002 4287476151
0.25176248 -0.16448942 -0.18000002 4288924101
0.25176248 -0.16627643 -0.18000002 4287541432
0.25176248 -0.16806343 -0.18000002 4286751405
0.25130862 -0.16965079 -0.17900003 4288133058
0.25130862 -0.17143521 -0.17900003 4290109408
0.25130862 -0.17321961 -0.17900003 4290107871
0.25130862 -0.17500402 -0.17900003 4284373622
0.25130862 -0.17678843 -0.17900003 4282799712
0.25085473 -0.17836021 -0.17800005 4282273368
0.25130862 -0.18035725 -0.17900003 4281552725
0.25130862 -0.18214165 -0.17900003 4281552471
0.25130862 -0.18392606 -0.17900003 4281552725
0.25085473 -0.18548746 -0.17800005 4281093203
0.25130862 -0.18749487 -0.17900003 4281093203
0.25130862 -0.18927929 -0.17900003 4281355607
0.25130862 -0.19106369 -0.17900003 4281355859
0.25130862 -0.1928481 -0.17900003 4281552977
0.25176248 -0.19486851 -0.18000002 4281618770
0.25176248 -0.19665551 -0.18000002 4281880404
0.25176248 -0.19844252 -0.18000002 4281551955
0.25176248 -0.20022953 -0.18000002 4281420885
0.25176248 -0.20201653 -0.18000002 4281552725
0.25130862 -0.20355456 -0.17900003 4281355346
0.25130862 -0.20533897 -0.17900003 4281552725
0.25130862 -0.20712338 -0.17900003 4281552723
0.25130862 -0.20890778 -0.17900003 4281355857
0.25130862 -0.2106922 -0.17900003 4281225041
0.25130862 -0.2124766 -0.17900003 4281225041
0.25130862 -0.21426101 -0.17900003 4281290318
0.25130862 -0.21604542 -0.17900003 4281290064
0.25130862 -0.21782982 -0.17900003 4281355859
0.25130862 -0.21961424 -0.17900003 4281290066
0.25130862 -0.22139864 -0.17900003 4281290066
0.25130862 -0.22318305 -0.17900003 4281421139
0.25130862 -0.22496746 -0.17900003 4281749334
0.25130862 -0.22675186 -0.17900003 4281814611
0.25130862 -0.22853628 -0.17900003 4281880658
0.25130862 -0.23032068 -0.17900003 4281880658
0.25130862 -0.23210509 -0.17900003 4281683793
0.25130862 -0.23388951 -0.17900003 4281552723
0.25176248 -0.23596965 -0.18000002 4281683793
0.25176248 -0.23775665 -0.18000002 4281355344
0.25267023 -0.24014553 -0.18200006 4281289551
0.25267023 -0.24193774 -0.18200006 4281289812
0.25267023 -0.24372993 -0.18200006 4281225043
0.25267023 -0.24552214 -0.18200006 4281356629
0.25312409 -0.24762566 -0.18300004 4281487445
0.25312409 -0.24942045 -0.18300004 4281487445
0.25357795 -0.25153178 -0.18400003 4281355344
0.25357795 -0.25332916 -0.18400003 4281355598
0.25357795 -0.25512657 -0.18400003 4281552205
0.25357795 -0.25692397 -0.18400003 4281552205
0.25357795 -0.25872135 -0.18400003 4281749584
0.25312409 -0.26018927 -0.18300004 4281355598
0.25312409 -0.26198405 -0.18300004 4281355857
0.25267023 -0.26344416 -0.18200006 4281552723
0.25267023 -0.26523635 -0.18200006 4281355344
0.25267023 -0.26702854 -0.18200006 4281486162
0.25221634 -0.26847824 -0.18100001 4281682773
0.25176248 -0.26992276 -0.18000002 4281814613
0.25176248 -0.27170977 -0.18000002 4281421391
0.25130862 -0.27314648 -0.17900003 4281289805
0.25130862 -0.27493089 -0.17900003 4281159502
0.25130862 -0.27671531 -0.17900003 4281225041
0.25130862 -0.27849972 -0.17900003 4281225041
0.25130862 -0.28028411 -0.17900003 4281159248
0.25130862 -0.28206852 -0.17900003 4281093455
0.25130862 -0.28385293 -0.17900003 4281224271
0.25130862 -0.28563735 -0.17900003 4281224273
0.25176248 -0.2877928 -0.18000002 4281027923
0.25221634 -0.28995347 -0.18100001 4281027923
0.25221634 -0.29174307 -0.18100001 4281093716
0.25267023 -0.29391155 -0.18200006 4281289814
0.25267023 -0.29570374 -0.18200006 4281223508
0.25267023 -0.29749596 -0.18200006 4281223506
0.25267023 -0.29928815 -0.18200006 4281420369
0.21567878 0.28087348 -0.10400005 4279772964
0.21477622 0.27826497 -0.10200001 4280494125
0.21477622 0.27668056 -0.10200001 4281217848
0.21477622 0.27509615 -0.10200001 4288784297
0.21477622 0.27351174 -0.10200001 4288659382
0.21522748 0.27242637 -0.103 4288463036
0.21613005 0.27183232 -0.10500003 4288331450
0.21658131 0.27073398 -0.10600002 4288067763
0.21748388 0.27012172 -0.10800005 4287739563
0.21838641 0.26949906 -0.11000003 4287739050
0.21928892 0.268866 -0.112 4287804073
0.21974021 0.26773912 -0.11300005 4287804073
0.22064275 0.26708791 -0.11500002 4288132523
0.22064275 0.26546973 -0.11500002 4288132776
0.22109401 0.26432723 -0.11600001 4288263592
0.22199658 0.26365265 -0.11800005 4288263592
0.22199658 0.26202667 -0.11800005 4288592041
0.22244784 0.26086861 -0.11900003 4288788907
0.22289911 0.25970531 -0.12000002 4288657834
0.22289911 0.25807416 -0.12000002 4288330155
0.22335038 0.25690308 -0.12100001 4288330155
0.22380167 0.25572684 -0.12200005 4288461488
0.22425294 0.25454539 -0.12300004 4288395695
0.22470421 0.25335875 -0.12400003 4288461488
0.22470421 0.25171718 -0.12400003 4288593074
0.22470421 0.25007564 -0.12400003 4288658867
0.22515547 0.2488786 -0.12500001 4288658867
0.22515547 0.24723446 -0.12500001 4288855729
0.22515547 0.2455903 -0.12500001 4289316280
0.22605804 0.24481961 -0.12700005 4289513659
0.22696057 0.24403852 -0.12900002 4289908164
0.22741184 0.24281549 -0.13000001 4290171336
0.22786313 0.24158731 -0.13100006 4289973957
0.22876567 0.24078023 -0.13300003 4289908164
0.2296682 0.23996279 -0.13500001 4289711555
0.2301195 0.2387138 -0.13600005 4289842371
0.2314733 0.23829669 -0.13900001 4290105543
0.23237586 0.2374481 -0.14100005 4289908164
0.23282713 0.23617572 -0.14200003 4289382590
0.23327839 0.23489815 -0.14300002 4289514176
0.23372966 0.2336154 -0.14400001 4289644992
0.23418096 0.23232749 -0.14500006 4289710785
0.23463222 0.23103434 -0.14600004 4289644992
0.23463222 0.22933564 -0.14600004 4289381820
0.23418096 0.22723919 -0.14500006 4289185211
0.23372966 0.2251479 -0.14400001 4289119420
0.23282713 0.22266927 -0.14200003 4289185213
0.23192456 0.22020102 -0.14 4289317050
0.23057076 0.21735582 -0.13700004 4289053878
0.22876567 0.21414138 -0.13300003 4288660150
0.2265093 0.21056557 -0.12800004 4288528566
0.22470421 0.2073953 -0.12400003 4288396982
0.22289911 0.20424581 -0.12000002 4288396982
0.22109401 0.2011171 -0.11600001 4288331702
0.21974021 0.19838098 -0.11300005 4288463288
0.21928892 0.19639878 -0.112 4288596158
0.21928892 0.19478841 -0.112 4287017124
0.22244784 0.19572601 -0.11900003 4283464302
0.2265093 0.19735004 -0.12800004 4282411095
0.2314733 0.19964491 -0.13900001 4282279509
0.24140128 0.20406325 -0.16100003 4281622349
0.24546275 0.20548469 -0.17000003 4281556303
0.24862167 0.20616256 -0.17700006 4281293131
0.25087804 0.20611241 -0.18200006 4281227338
0.2513293 0.20466343 -0.18300004 4281030212
0.25178057 0.20320925 -0.18400003 4280898626
0.25223184 0.20174986 -0.18500002 4280701247
0.25223184 0.19994988 -0.18500002 4280701247
0.25223184 0.19814989 -0.18500002 4280372282
0.25223184 0.19634989 -0.18500002 4280502845
0.25223184 0.1945499 -0.18500002 4280501820
0.25223184 0.1927499 -0.18500002 4279972657
0.25178057 0.19062749 -0.18400003 4280038450
0.25178057 0.18883008 -0.18400003 4280103730
0.2513293 0.18671542 -0.18300004 4280169523
0.2513293 0.18492064 -0.18300004 4280169525
0.25087804 0.18281379 -0.18200006 4280301111
0.25087804 0.18102159 -0.18200006 4280235320
0.25087804 0.17922939 -0.18200006 4280235320
0.25042674 0.17713292 -0.18100001 4280235833
0.24997547 0.17504166 -0.18000002 4280301624
0.24952421 0.17295559 -0.17900003 4280499003
0.24952421 0.17117119 -0.17900003 4280760890
0.24907294 0.16909291 -0.17800005 4280760379
0.24907294 0.1673111 -0.17800005 4281154103
0.24907294 0.1655293 -0.17800005 4283183662
0.24907294 0.16374749 -0.17800005 4282854697
0.24907294 0.16196567 -0.17800005 4285471512
0.24862167 0.15990299 -0.17700006 4286190868
0.24862167 0.15812378 -0.17700006 4286585108
0.24907294 0.15662023 -0.17800005 4286453006
0.24907294 0.15483843 -0.17800005 4286453006
0.24907294 0.15305662 -0.17800005 4286584592
0.24952421 0.15154269 -0.17900003 4286518797
0.24952421 0.14975829 -0.17900003 4286714636
0.24952421 0.14797388 -0.17900003 4286780429
0.24997547 0.14644957 -0.18000002 4286846222
0.24952421 0.14440507 -0.17900003 4286780944
0.24997547 0.14287557 -0.18000002 4286583825
0.25042674 0.14134087 -0.18100001 4286714897
0.25042674 0.13955125 -0.18100001 4286649104
0.25042674 0.13776165 -0.18100001 4286714384
0.25087804 0.13621658 -0.18200006 4286780177
0.25087804 0.13442437 -0.18200006 4286845200
0.25087804 0.13263218 -0.18200006 4287041298
0.2513293 0.13107669 -0.18300004 4287041298
0.2513293 0.12928191 -0.18300004 4286975251
0.25178057 0.12771863 -0.18400003 4286975505
0.25178057 0.12592123 -0.18400003 4287107089
0.25178057 0.12412384 -0.18400003 4286975503
0.25178057 0.12232645 -0.18400003 4287107089
0.25223184 0.12075019 -0.18500002 4286975503
0.25223184 0.1189502 -0.18500002 4287041296
0.25223184 0.1171502 -0.18500002 4287041550
0.2526831 0.11556356 -0.186 4287041550
0.2526831 0.11376096 -0.186 4287041550
0.2526831 0.11195837 -0.186 4287107089
0.2526831 0.11015579 -0.186 4287041809
0.2526831 0.1083532 -0.186 4287041811
0.2526831 0.1065506 -0.186 4287041811
0.25223184 0.10455026 -0.18500002 4286976016
0.25223184 0.10275027 -0.18500002 4286910475
0.25178057 0.1007577 -0.18400003 4286648075
0.25178057 0.09896031 -0.18400003 4286780431
0.25178057 0.097162917 -0.18400003 4286912017
0.25178057 0.095365524 -0.18400003 4286584079
0.25178057 0.093568131 -0.18400003 4286518032
0.2513293 0.09159115 -0.18300004 4286387731
0.2513293 0.089796349 -0.18300004 4286387731
0.2513293 0.088001557 -0.18300004 4285208595
0.2513293 0.086206757 -0.18300004 4282459941
0.2513293 0.084411956 -0.18300004 4280957240
0.2513293 0.082617164 -0.18300004 4280958271
0.2513293 0.080822363 -0.18300004 4280892478
0.2513293 0.079027563 -0.18300004 4280761662
0.25178057 0.077391572 -0.18400003 4280762175
0.25358567 -0.046710376 -0.18800004 4288185230
0.25358567 -0.050325945 -0.18800004 4287591294
0.2531344 -0.052105524 -0.18700005 4287916145
0.2531344 -0.05391071 -0.18700005 4287846761
0.2531344 -0.055715896 -0.18700005 4287978860
0.2531344 -0.057521082 -0.18700005 4287452516
0.2531344 -0.059326272 -0.18700005 4287251794
0.2531344 -0.061131459 -0.18700005 4287442745
0.2531344 -0.062936649 -0.18700005 4287638829
0.2531344 -0.064741835 -0.18700005 4287704622
0.2531344 -0.066547021 -0.18700005 4287704361
0.2531344 -0.068352208 -0.18700005 4287835945
0.2531344 -0.070157394 -0.18700005 4287836206
0.2526831 -0.071905799 -0.186 4287967794
0.2531344 -0.073767774 -0.18700005 4288099380
0.2531344 -0.07557296 -0.18700005 4288099898
0.2531344 -0.077378146 -0.18700005 4289684838
0.2531344 -0.07918334 -0.18700005 4288702570
0.2531344 -0.080988526 -0.18700005 4288439146
0.25358567 -0.082866073 -0.18800004 4288899697
0.25358567 -0.084673859 -0.18800004 4289230710
0.25358567 -0.086481646 -0.18800004 4289036413
0.25403693 -0.088369586 -0.18900003 4289105286
0.25403693 -0.090179965 -0.18900003 4288643970
0.25403693 -0.091990352 -0.18900003 4288709763
0.25403693 -0.093800731 -0.18900003 4288446843
0.25358567 -0.095520563 -0.18800004 4288380796
0.2531344 -0.09723521 -0.18700005 4288443509
0.2531344 -0.099040397 -0.18700005 4288774786
0.2526831 -0.10074724 -0.186 4288774786
