# .PCD v0.7 - Point Cloud Data file format
VERSION 0.7
FIELDS x y z rgb
SIZE 4 4 4 4
TYPE F F F U
COUNT 1 1 1 1
WIDTH 1010
HEIGHT 1
VIEWPOINT 0 0 0 1 0 0 0
POINTS 1010
DATA ascii
0.16518271 0.046003852 -0.05336592 4279376927
0.16435245 0.045173589 -0.05336592 4279311134
0.16352217 0.044343319 -0.05336592 4279311134
0.16269191 0.043513056 -0.05336592 4279376927
0.16186166 0.042682804 -0.05336592 4279376927
0.1610314 0.041852545 -0.05336592 4279376927
0.15943152 0.041382574 -0.052749801 4279442720
0.15706548 0.04127644 -0.051517531 4279442720
0.15547144 0.040812317 -0.050901406 4280490527
0.15387975 0.040350534 -0.050285291 4280293148
0.15229039 0.039891079 -0.049669173 4280814351
0.14993952 0.039800119 -0.048436902 4280748558
0.14835601 0.039346512 -0.047820777 4280355851
0.048754457 0.074206412 0.02549828 4288723410
0.048073672 0.07352563 0.02549828 4288723410
0.047392875 0.072844826 0.02549828 4289447394
0.046712086 0.072164044 0.02549828 4287868362
0.046031289 0.071483247 0.02549828 4286489035
0.045350488 0.070802443 0.02549828 4285962691
0.044669703 0.070121661 0.02549828 4286818252
0.043988906 0.069440857 0.02549828 4287870940
0.043308116 0.068760075 0.02549828 4288659173
0.042627331 0.068079285 0.02549828 4289646068
0.04194653 0.067398489 0.02549828 4289776627
0.041265745 0.066717699 0.02549828 4288263388
0.040584944 0.066036902 0.02549828 4289117927
0.039904159 0.065356113 0.02549828 4290170615
0.039223362 0.064675316 0.02549828 4290433274
0.037812654 0.064394526 0.026114399 4290433274
0.037133034 0.063714907 0.026114399 4290564092
0.036453407 0.06303528 0.026114399 4290564092
0.035773788 0.06235566 0.026114399 4290695164
0.035094161 0.061676029 0.026114399 4290760957
0.03441453 0.060996402 0.026114399 4290629885
0.033734914 0.060316782 0.026114399 4290629885
0.033055287 0.059637155 0.026114399 4290629885
0.032375656 0.058957528 0.026114399 4290629885
0.032415442 0.0578674 0.02549828 4290564092
0.031734645 0.0571866 0.02549828 4290432506
0.031053847 0.056505803 0.02549828 4290564090
0.030373059 0.055825014 0.02549828 4291222015
0.029692266 0.055144221 0.02549828 4285829299
0.029011473 0.054463431 0.02549828 4288066261
0.028330676 0.053782631 0.02549828 4289184740
0.027649883 0.053101838 0.02549828 4288987361
0.026969096 0.052421052 0.02549828 4288461530
0.026288303 0.051740259 0.02549828 4288000979
0.02560751 0.051059466 0.02549828 4289775592
0.024926716 0.050378673 0.02549828 4289775592
0.024245925 0.04969788 0.02549828 4289906408
0.023565132 0.049017087 0.02549828 4289709029
0.022884339 0.048336294 0.02549828 4289447140
0.022203546 0.0476555 0.02549828 4289447140
0.021522747 0.046974704 0.02549828 4288068317
0.02084196 0.046293914 0.02549828 4285831355
0.020161169 0.045613125 0.02549828 4284187817
0.019480376 0.044932332 0.02549828 4288727534
0.018799582 0.044251539 0.02549828 4289185765
0.018813707 0.043135684 0.024882121 4287343561
0.018131744 0.042453721 0.024882121 4287672012
0.017449781 0.041771758 0.024882121 4286421945
0.016767824 0.041089803 0.024882121 4285365400
0.016085867 0.040407848 0.024882121 4285431193
0.014714831 0.040166788 0.02549828 4286020487
0.014034033 0.039485987 0.02549828 4285296764
0.01335324 0.038805194 0.02549828 4285425490
0.011986913 0.038568784 0.026114399 4284964939
0.011307285 0.037889156 0.026114399 4284701755
0.0099444613 0.037656244 0.026730515 4283846446
0.0079019358 0.037873548 0.02796275 4281411605
0.0045105643 0.037871983 0.029811144 4285686377
0.0031594154 0.037650749 0.030427262 4285092709
0.0011332012 0.037884425 0.03165954 4285816432
-0.0008883035 0.038122751 0.032891773 4287069077
-0.0029051718 0.038365774 0.03412405 4285358459
-0.0049173357 0.038613439 0.035356283 4283128184
-0.0062521365 0.038408551 0.035972401 4285496732
-0.0082561551 0.038664427 0.037204679 4287205803
-0.010255476 0.038924936 0.038436912 4286876838
-0.012250161 0.039190147 0.039669186 4284896627
-0.013572115 0.038998101 0.040285308 4283514974
-0.015558586 0.039271459 0.041517545 4287003800
-0.017540427 0.039549515 0.042749815 4286214284
-0.01951756 0.039832205 0.043982055 4286878637
-0.020826666 0.039653014 0.044598173 4285168019
-0.022795664 0.039943915 0.045830444 4283983745
-0.024759941 0.040239461 0.047062684 4284961391
-0.026059713 0.040069602 0.047678802 4285619321
-0.028015858 0.040373348 0.04891108 4286215051
-0.029309787 0.040209334 0.049527194 4287859876
-0.031257723 0.040521227 0.050759431 4285960617
-0.032545853 0.040363077 0.051375583 4285697445
-0.03448562 0.040683135 0.052607823 4282149516
-0.035767868 0.040530801 0.053223941 4280833656
-0.037699498 0.04085907 0.054456212 4281686396
-0.038975906 0.040712569 0.055072337 4285765562
-0.040899318 0.041048985 0.05630457 4285960104
-0.042169932 0.040908355 0.056920726 4285828518
-0.043438174 0.040770028 0.05753684 4285959334
-0.045349911 0.041118115 0.058769081 4285959334
-0.04725701 0.041470911 0.060001355 4285959334
-0.048515908 0.041341923 0.060617477 4285432990
-0.050414801 0.041702859 0.061849713 4284380302
-0.051667899 0.041579742 0.062465865 4283524479
-0.05291862 0.041458938 0.06308198 4284840339
-0.05480583 0.041831549 0.064314224 4285300123
-0.056050718 0.041716579 0.064930342 4283852677
-0.057929799 0.042097393 0.066162609 4284247948
-0.059168838 0.041988265 0.066778734 4283392639
-0.060405549 0.041881468 0.067394853 4285760674
-0.061639961 0.041777037 0.068011008 4286089639
-0.062872 0.041674912 0.068627127 4286154403
-0.064101703 0.041575123 0.069243237 4286614954
-0.06469959 0.04097724 0.069243237 4290693346
-0.065925784 0.040880948 0.069859363 4292864511
-0.067149654 0.040786996 0.070475481 4294246399
-0.067745201 0.040191453 0.070475481 4294180863
-0.068965599 0.040101033 0.071091637 4294115327
-0.070183627 0.040012922 0.071707755 4292537328
-0.070776843 0.039419707 0.071707755 4290103516
-0.071991362 0.039335102 0.072323866 4291748341
-0.072583407 0.038743056 0.072323866 4292867583
-0.073175453 0.038151011 0.072323866 4293591039
-0.073767498 0.037558965 0.072323866 4293722111
-0.074359536 0.036966924 0.072323866 4293591039
-0.074951582 0.036374882 0.072323866 4292537085
-0.075543627 0.035782836 0.072323866 4291352811
-0.076135673 0.035190787 0.072323866 4290364381
-0.07611575 0.0340808 0.071707755 4289311693
-0.076708958 0.033487588 0.071707755 4287732147
-0.077302173 0.032894377 0.071707755 4287205803
-0.077286921 0.031779714 0.071091637 4287008424
-0.077881299 0.031185336 0.071091637 4287074217
-0.077869512 0.03006714 0.070475481 4287008678
-0.077860095 0.028946644 0.069859363 4287271850
-0.078456812 0.028349927 0.069859363 4287930292
-0.078450896 0.027225928 0.069243237 4287535534
-0.07844732 0.026099589 0.068627127 4284706185
-0.079046376 0.02550054 0.068627127 4279179573
-0.079046302 0.024370698 0.068011008 4279179069
-0.079048522 0.023238491 0.067394853 4279179069
-0.079053126 0.022103978 0.066778734 4278916921
-0.079060055 0.020967135 0.066162609 4278851128
-0.079663783 0.020363411 0.066162609 4278719542
-0.079674214 0.019223062 0.065546498 4278719542
-0.079686955 0.018080343 0.064930342 4278391090
-0.079702057 0.016935322 0.064314224 4279575364
-0.079719499 0.015787965 0.063698106 4285562777
-0.07973928 0.014638276 0.06308198 4284904847
-0.079761393 0.013486248 0.062465865 4284971410
-0.080372125 0.012875519 0.062465865 4285037203
-0.080397703 0.011719956 0.061849713 4285168789
-0.081009604 0.01110806 0.061849713 4285234582
-0.081621498 0.010496164 0.061849713 4284905367
-0.044535737 -0.02699331 0.021185374 4284905367
-0.045224704 -0.027682276 0.021185374 4291484667
-0.045335568 -0.028923053 0.020569257 4290760944
-0.046025701 -0.029613188 0.020569257 4290826737
-0.046140067 -0.030857466 0.019953139 4290497520
-0.046831369 -0.031548768 0.019953139 4290168555
-0.046949204 -0.03279658 0.01933698 4289971174
-0.047641676 -0.033489052 0.01933698 4289708002
-0.047763046 -0.034740336 0.018720863 4289445336
-0.047886752 -0.035993956 0.018104745 4289116371
-0.048012793 -0.037249915 0.017488629 4288918990
-0.04814117 -0.038508207 0.01687251 4288590025
-0.048271853 -0.039768863 0.016256351 4288261058
-0.048404902 -0.041031826 0.015640233 4287997886
-0.048540283 -0.042297125 0.015024116 4287405751
-0.048678003 -0.043564759 0.014407999 4286813614
-0.048818026 -0.044834763 0.013791845 4286550957
-0.048960418 -0.046107065 0.013175721 4286090406
-0.049105145 -0.047381707 0.012559605 4285432736
-0.049252205 -0.04865868 0.011943487 4285432736
-0.0494016 -0.049937993 0.01132737 4285432990
-0.049553301 -0.051219668 0.01071121 4285301404
-0.049707372 -0.052503653 0.010095092 4285432476
-0.050417356 -0.053213637 0.010095092 4285432476
-0.050574925 -0.054501124 0.0094789751 4285366683
-0.050734833 -0.055790942 0.0088628586 4285235097
-0.050897073 -0.0570831 0.0082467413 4284840339
-0.051610563 -0.05779659 0.0082467413 4283853444
-0.051228534 -0.059674449 0.0070144637 4283853444
-0.05194436 -0.060390275 0.0070144637 4283129721
-0.052114774 -0.061690606 0.0063983463 4283129721
-0.052831769 -0.062407598 0.0063983463 4284774031
-0.053005688 -0.063711435 0.0057822294 4283918722
0.094394244 -0.23608118 -0.16858159 4283919235
0.093880512 -0.23772483 -0.16919771 4284379786
0.093364447 -0.23937081 -0.16981383 4284708751
0.092846043 -0.24101913 -0.17042994 4284774546
0.092325337 -0.24266982 -0.17104611 4286024613
0.091272034 -0.24372312 -0.17104611 4286221992
0.090747796 -0.24537727 -0.17166223 4286353578
0.090221219 -0.24703376 -0.17227834 4286353578
0.089692309 -0.24869259 -0.17289445 4286616750
0.089161061 -0.25035375 -0.17351057 4286351780
0.088627502 -0.25201729 -0.17412673 4284246404
0.08809159 -0.25368312 -0.17474285 4281943649
0.088075384 -0.25595915 -0.17597508 4281417305
0.08753366 -0.25763085 -0.17659123 4281482580
0.087509289 -0.25991505 -0.17782348 4281482580
0.08748024 -0.26220393 -0.17905571 4281614934
0.086411759 -0.2632724 -0.17905571 4281878106
0.086375736 -0.26556832 -0.18028799 4282141791
0.085819967 -0.26725399 -0.18090411 4283062893
0.085261859 -0.26894203 -0.18152022 4283392628
0.084701426 -0.27063239 -0.18213634 4282274147
0.084138677 -0.2723251 -0.18275249 4281286736
0.083573565 -0.27402014 -0.18336862 4280826185
0.082496904 -0.27509677 -0.18336862 4280233533
0.08192829 -0.27679533 -0.18398474 4279378224
0.081357338 -0.27849618 -0.18460086 4279903798
0.080784082 -0.28019941 -0.18521701 4280232763
0.079703927 -0.28127959 -0.18521701 4280495935
0.079127133 -0.28298628 -0.18583313 4280627521
0.078045808 -0.2840676 -0.18583313 4280824898
0.076964483 -0.28514892 -0.18583313 4281022277
0.07588315 -0.28623027 -0.18583313 4281023047
0.074801825 -0.28731158 -0.18583313 4281154633
0.073720492 -0.28839293 -0.18583313 4281023047
0.072639175 -0.28947425 -0.18583313 4281023047
0.071557842 -0.29055557 -0.18583313 4281286221
0.070970543 -0.29227278 -0.18644924 4281352014
0.070380904 -0.29399234 -0.18706536 4281286221
0.06978894 -0.29571423 -0.18768148 4281352014
0.069685191 -0.29807785 -0.18891376 4281220939
0.17742126 0.066973947 -0.0500599 4286842638
0.17739972 0.065823667 -0.050677441 4286776845
0.17657647 0.065000407 -0.050677441 4286645772
0.17655143 0.063846625 -0.051294994 4286645772
0.17652406 0.062690511 -0.051912542 4286711565
0.17649435 0.061532058 -0.052530091 4286711565
0.17646235 0.060371254 -0.053147677 4286514700
0.17563443 0.059543319 -0.053147677 4286514700
0.16591202 0.055464704 -0.0500599 4279638298
0.16344574 0.052998431 -0.0500599 4279573277
0.16487136 0.048780259 -0.053147677 4279376927
0.16482063 0.047600783 -0.053765226 4279311134
0.16476758 0.04641898 -0.054382771 4279245341
0.16393732 0.045588717 -0.054382771 4279311134
0.16310704 0.044758447 -0.054382771 4279376927
0.16227679 0.043928184 -0.054382771 4279376927
0.16144653 0.043097932 -0.054382771 4279311134
0.15984607 0.042626224 -0.053765226 4279376927
0.15901697 0.04179712 -0.053765226 4279442720
0.15742002 0.041328918 -0.053147677 4279442720
0.15505865 0.041225109 -0.051912542 4280163617
0.15346755 0.040762745 -0.051294994 4279966238
0.15187876 0.040302705 -0.050677441 4280749843
0.047598839 0.075989075 0.025899582 4288328652
0.046920378 0.075310618 0.025899582 4288724187
0.046987597 0.074249089 0.025282033 4289776875
0.04630797 0.073569462 0.025282033 4286489807
0.04562835 0.072889842 0.025282033 4283068571
0.045690894 0.071823634 0.02466449 4282543268
0.045010097 0.071142837 0.02466449 4282872233
0.043589465 0.070850961 0.025282033 4288068067
0.042909849 0.070171341 0.025282033 4288199653
0.04223023 0.069491722 0.025282033 4288329696
0.041550603 0.068812095 0.025282033 4289842935
0.040135812 0.068526052 0.025899582 4289512687
0.040191345 0.067452841 0.025282033 4289117929
0.038778894 0.06716913 0.025899582 4290301690
0.038100433 0.066490673 0.025899582 4290433276
0.037421975 0.065812215 0.025899582 4290499069
0.036743518 0.065133758 0.025899582 4290499069
0.036065068 0.064455308 0.025899582 4290564092
0.035386611 0.063776851 0.025899582 4290629885
0.03470815 0.063098386 0.025899582 4290695678
0.034029692 0.062419929 0.025899582 4290761471
0.033351231 0.061741471 0.025899582 4290695676
0.032672774 0.06106301 0.025899582 4290695676
0.031994324 0.060384564 0.025899582 4290761469
0.031315867 0.059706103 0.025899582 4290761469
0.030637408 0.059027646 0.025899582 4290695676
0.029958948 0.058349188 0.025899582 4290629883
0.029280495 0.057670735 0.025899582 4290695674
0.028602036 0.056992274 0.025899582 4290366709
0.027923577 0.056313816 0.025899582 4283593110
0.027245123 0.055635363 0.025899582 4287014346
0.026566664 0.054956902 0.025899582 4288265437
0.025888206 0.054278444 0.025899582 4288725988
0.025919225 0.053180721 0.025282033 4287015370
0.025239602 0.052501097 0.025282033 4284909994
0.024559975 0.051821467 0.025282033 4290105072
0.023880351 0.051141843 0.025282033 4289776107
0.023200722 0.050462216 0.025282033 4289841387
0.022521099 0.049782593 0.025282033 4289709801
0.02184147 0.049102962 0.025282033 4289512933
0.021161847 0.048423342 0.025282033 4288986589
0.020482223 0.047743719 0.025282033 4288528609
0.019802602 0.047064096 0.025282033 4287804886
0.019122979 0.046384472 0.025282033 4283728036
0.019139981 0.045272723 0.02466449 4285175482
0.018459188 0.04459193 0.02466449 4289186537
0.017778397 0.04391114 0.02466449 4287870677
0.017097604 0.043230347 0.02466449 4286356666
0.01641681 0.042549554 0.02466449 4286554045
0.015736017 0.041868761 0.02466449 4286221740
0.01505523 0.041187972 0.02466449 4284971673
0.014374437 0.040507179 0.02466449 4285692557
0.013693639 0.039826382 0.02466449 4285824143
0.013012846 0.039145589 0.02466449 4285624167
0.011647101 0.038908593 0.025282033 4285032030
0.010967473 0.038228966 0.025282033 4284635964
0.0096052345 0.037995473 0.025899582 4284109620
0.0082453294 0.037764315 0.026517132 4282136094
0.0062074433 0.037983984 0.027752267 4281147942
0.0048533762 0.037758663 0.028369818 4283319111
0.00079864479 0.038218983 0.030840047 4285225065
-0.0012216903 0.038456138 0.032075144 4286082182
-0.0025629082 0.038243666 0.032692697 4286805905
-0.0052483887 0.03894449 0.034545373 4282340467
-0.0065826047 0.038739022 0.035162922 4282406260
-0.0079145208 0.038535919 0.035780508 4284708761
-0.010583607 0.039253067 0.037633158 4285893035
-0.012577126 0.039517112 0.038868289 4287074217
-0.013898497 0.039324485 0.039485838 4284837255
-0.015883798 0.039596673 0.040720936 4285757844
-0.017199334 0.039409883 0.041338488 4286810532
-0.019176502 0.039690271 0.042573623 4286550442
-0.021148961 0.039975308 0.043808714 4286353063
-0.022455193 0.039797887 0.0444263 4285364115
-0.024419468 0.040091101 0.045661401 4284760928
-0.025719825 0.039919492 0.04627895 4284892514
-0.027017837 0.039750226 0.046896499 4285023069
-0.028970489 0.040055133 0.04813163 4286733687
-0.030918421 0.040364694 0.049366727 4286941600
-0.032207098 0.04020476 0.04998428 4287204772
-0.034146897 0.040522519 0.051219415 4284976298
-0.036081988 0.040844921 0.052454505 4282607750
-0.037361357 0.040694367 0.053072091 4280898165
-0.039288275 0.041024938 0.054307193 4282411404
-0.041210517 0.041360185 0.05554229 4286026156
-0.042480551 0.04121897 0.056159873 4285697191
-0.043748204 0.041080061 0.056777421 4285959334
-0.045658775 0.041426983 0.058012519 4285959334
-0.046920627 0.041293941 0.058630105 4285893541
-0.048823021 0.041649036 0.059865206 4285630369
-0.050078999 0.04152181 0.060482748 4285827234
-0.051973261 0.041885104 0.061717883 4283852931
-0.053223398 0.041763715 0.062335435 4284116103
-0.055109441 0.04213516 0.063570537 4286090406
-0.056353744 0.042019602 0.064188085 4285629855
-0.058231656 0.042399254 0.065423213 4284774806
-0.058835376 0.041795533 0.065423213 4282932602
-0.060072668 0.041686986 0.066040762 4284379788
-0.06194007 0.042077143 0.067275897 4285169304
-0.063171521 0.041974433 0.067893445 4285760158
-0.064400643 0.041874059 0.068510994 4286220709
-0.065627426 0.041776024 0.069128543 4287008940
-0.066851877 0.041680317 0.069746092 4289443281
-0.067447424 0.04108477 0.069746092 4293588223
-0.068668403 0.040992603 0.070363678 4294377471
-0.06988702 0.040902738 0.070981227 4294180863
-0.070480227 0.040309526 0.070981227 4294246399
-0.071695335 0.040223163 0.071598776 4293393150
-0.072287381 0.039631121 0.071598776 4293722111
-0.072879426 0.039039075 0.071598776 4293722111
-0.074089862 0.038957383 0.072216325 4293656575
-0.074680738 0.038366504 0.072216325 4292537855
-0.075271614 0.037775632 0.072216325 4291287788
-0.075247601 0.036670897 0.071598776 4290364381
-0.075839646 0.036078855 0.071598776 4289377486
-0.076431692 0.035486806 0.071598776 4287863733
-0.077023737 0.034894761 0.071598776 4287074217
-0.077005558 0.033784192 0.070981227 4287074217
-0.077598773 0.033190977 0.070981227 4287074217
-0.077584103 0.032076903 0.070363678 4287009192
-0.078178488 0.031482525 0.070363678 4287338157
-0.078167282 0.030364914 0.069746092 4288061880
-0.078158453 0.029245 0.069128543 4287206571
-0.07875517 0.028648283 0.069128543 4285628309
-0.078749835 0.027524866 0.068510994 4285233551
-0.078746848 0.026399111 0.067893445 4283983234
-0.078746185 0.025271023 0.067275897 4278456622
-0.078747831 0.024140568 0.066658311 4279048253
-0.07934922 0.023539182 0.066658311 4278916667
-0.079354398 0.022405254 0.066040762 4278785848
-0.079361916 0.021268994 0.065423213 4278588469
-0.079371765 0.02013039 0.064805672 4278588469
-0.079976656 0.019525504 0.064805672 4278654262
-0.079989977 0.018383369 0.064188085 4278193711
-0.080005668 0.017238932 0.063570537 4279443778
-0.080023699 0.016092159 0.06295298 4285825949
-0.080044061 0.014943052 0.062335435 4284970640
-0.080066755 0.01379161 0.061717883 4285036433
-0.080091752 0.012637799 0.061100297 4285102226
-0.080119126 0.011481685 0.060482748 4285168789
-0.080732189 0.010868621 0.060482748 4285037203
-0.081345253 0.010255557 0.060482748 4285036181
-0.045460079 -0.026099939 0.020959118 4285036181
-0.045569185 -0.027337797 0.020341575 4291352309
-0.046258152 -0.028026763 0.020341575 4290562795
-0.046370767 -0.029268123 0.019724026 4290431209
-0.047060899 -0.029958257 0.019724026 4290037221
-0.047751036 -0.030648392 0.019724026 4289905635
-0.047868319 -0.031894423 0.019106476 4289576922
-0.047987904 -0.03314282 0.01848889 4289379543
-0.048109863 -0.034393519 0.017871341 4289050576
-0.048803497 -0.035087157 0.017871341 4288721611
-0.048928957 -0.036341362 0.01725379 4288326853
-0.049056754 -0.037597902 0.016636241 4288063681
-0.048621003 -0.039419714 0.015401112 4287668923
-0.048754636 -0.040682092 0.014783562 4287142579
-0.048890606 -0.041946806 0.014166012 4286747821
-0.049028907 -0.043213855 0.013548463 4286353063
-0.04860834 -0.045050845 0.012313327 4285761441
-0.049312487 -0.045754995 0.012313327 4285629855
-0.049457796 -0.047029052 0.011695784 4285432736
-0.049605444 -0.048305441 0.011078235 4285301150
-0.049755424 -0.049584169 0.010460685 4285498529
-0.049907707 -0.050865266 0.0098430989 4285235357
-0.050062358 -0.052148663 0.0092255492 4285366683
-0.050772347 -0.052858647 0.0092255492 4285235097
-0.0509305 -0.054145548 0.0086079994 4285103511
-0.051090993 -0.055434782 0.0079904497 4284313995
-0.051253814 -0.056726359 0.0073729064 4283458686
-0.051967304 -0.057439849 0.0073729064 4282866549
-0.052133601 -0.058734957 0.0067553204 4283787651
-0.052302267 -0.060032368 0.0061377706 4284182409
-0.052473269 -0.061332114 0.0055202208 4284182409
0.094891526 -0.23227772 -0.16863075 4283853442
0.093845233 -0.23332402 -0.16863075 4284313993
0.093869939 -0.23555687 -0.16986588 4284774544
0.092821307 -0.23660551 -0.16986588 4284708751
0.091772676 -0.23765413 -0.16986588 4285366681
0.091788001 -0.2398963 -0.17110097 4286156199
0.091267847 -0.2415452 -0.17171854 4286287785
0.090745389 -0.24319647 -0.17233612 4286287785
0.089692086 -0.24424978 -0.17233612 4286485164
0.08916609 -0.24590452 -0.17295367 4287010221
0.089163907 -0.24816419 -0.17418876 4285628568
0.088107102 -0.249221 -0.17418876 4283258737
0.088097937 -0.25148773 -0.17542389 4281482326
0.087561436 -0.25315297 -0.17604144 4281219924
0.087544069 -0.25542784 -0.17727654 4281483096
0.087001756 -0.25709894 -0.17789413 4281483348
0.086457089 -0.25877237 -0.17851168 4281746520
0.086428039 -0.2610589 -0.17974678 4281943899
0.085877523 -0.26273817 -0.18036433 4282141278
0.085324697 -0.26441979 -0.1809819 4283457651
0.084769517 -0.26610374 -0.18159945 4282997100
0.084725291 -0.26840547 -0.18283455 4281812826
0.083652139 -0.26947862 -0.18283455 4281286482
0.08308994 -0.27116954 -0.1834521 4280562498
0.082525447 -0.27286285 -0.18406969 4279575603
0.081958584 -0.27455845 -0.18468723 4279640624
0.080881923 -0.27563512 -0.18468723 4280035382
0.07980527 -0.27671179 -0.18468723 4280232761
0.079233736 -0.27841204 -0.18530479 4280495933
0.078155905 -0.27948987 -0.18530479 4280561726
0.077078082 -0.28056771 -0.18530479 4280890691
0.075498641 -0.28101841 -0.18468723 4280956484
0.074421987 -0.28209507 -0.18468723 4281088070
0.073844612 -0.28380117 -0.18530479 4281023047
0.072766788 -0.284879 -0.18530479 4281023047
0.071688958 -0.28595683 -0.18530479 4280957767
0.070611142 -0.28703466 -0.18530479 4281089353
0.070027925 -0.28874663 -0.18592232 4281155146
0.068948939 -0.28982562 -0.18592232 4281286732
0.067869939 -0.29090461 -0.18592232 4281220939
0.067773201 -0.29325891 -0.18715747 4281352525
0.066691875 -0.29434022 -0.18715747 4281155146
0.066588089 -0.29670149 -0.18839256 4281220939
0.065992035 -0.2984263 -0.18901011 4281220939
0.17767161 0.061280861 -0.054780658 4286776845
0.17763665 0.060118325 -0.055399634 4286777358
0.17680639 0.059288062 -0.055399634 4286645772
0.17597613 0.058457792 -0.055399634 4286711567
0.1735646 0.05830143 -0.054161679 4286711567
0.1644574 0.04919422 -0.054161679 4279376927
0.16440609 0.048015334 -0.054780658 4279311134
0.16435245 0.046834111 -0.055399634 4279311134
0.16352218 0.046003852 -0.055399634 4279376927
0.16346504 0.044819124 -0.056018617 4279376927
0.16186164 0.044343319 -0.055399634 4279376927
0.1610314 0.043513067 -0.055399634 4279311134
0.16020113 0.042682804 -0.055399634 4279245341
0.047866765 0.078063041 0.025687626 4289445847
0.047189478 0.077385746 0.025687626 4288526290
0.046512187 0.076708458 0.025687626 4287605188
0.045834899 0.076031171 0.025687626 4289382380
0.045902699 0.0749714 0.025068643 4286487488
0.045224242 0.074292935 0.025068643 4283660708
0.044545785 0.073614478 0.025068643 4283002778
0.043867324 0.072936021 0.025068643 4283924143
0.043188866 0.072257563 0.025068643 4286161105
0.042510405 0.071579106 0.025068643 4289908990
0.041831948 0.070900641 0.025068643 4289777404
0.041153498 0.070222199 0.025068643 4289907961
0.039739292 0.069935568 0.025687626 4290236926
0.039062005 0.06925828 0.025687626 4290499069
0.038384713 0.068580985 0.025687626 4290301690
0.037707426 0.067903697 0.025687626 4290499069
0.036299054 0.067622907 0.026306601 4290499069
0.035622936 0.06694679 0.026306601 4290695678
0.034946803 0.066270657 0.026306601 4290629885
0.034270696 0.065594546 0.026306601 4290629885
0.033594564 0.064918421 0.026306601 4290761471
0.032918446 0.064242296 0.026306601 4290761469
0.032242324 0.063566178 0.026306601 4290893055
0.031566206 0.06289006 0.026306601 4290893055
0.030890075 0.062213928 0.026306601 4290761469
0.030213956 0.06153781 0.026306601 4290761469
0.030257232 0.060453504 0.025687626 4290695676
0.028861716 0.06018557 0.026306601 4290761469
0.028902665 0.059098937 0.025687626 4290761469
0.02822537 0.058421642 0.025687626 4290827260
0.02754808 0.057744354 0.025687626 4289971951
0.026870791 0.057067063 0.025687626 4281816703
0.026193501 0.056389775 0.025687626 4284185251
0.025516208 0.05571248 0.025687626 4287411161
0.024838919 0.055035189 0.025687626 4287016403
0.024161633 0.054357905 0.025687626 4284318116
0.023484346 0.053680617 0.025687626 4286094527
0.022807056 0.053003326 0.025687626 4290039281
0.022129767 0.052326038 0.025687626 4289644523
0.022156693 0.05122539 0.025068643 4289972971
0.021478234 0.050546929 0.025068643 4289512420
0.020799775 0.049868472 0.025068643 4288131280
0.020121321 0.049190018 0.025068643 4287736522
0.019442862 0.048511557 0.025068643 4288264665
0.018764408 0.047833104 0.025068643 4288001493
0.018085949 0.047154646 0.025068643 4285439168
0.018103538 0.046044655 0.024449667 4282741655
0.017423915 0.045365032 0.024449667 4287871192
0.017437996 0.044251539 0.023830686 4286489539
0.016757203 0.043570746 0.023830686 4285896885
0.016076412 0.042889953 0.023830686 4286357436
0.015395618 0.04220916 0.023830686 4286355123
0.014714831 0.04152837 0.023830686 4285565607
0.014034038 0.040847581 0.023830686 4285495699
0.01335324 0.04016678 0.023830686 4285956250
0.012672448 0.039485987 0.023830686 4286152325
0.011991655 0.038805194 0.023830686 4284507500
0.010627662 0.038568776 0.024449667 4284636228
0.0099480385 0.037889156 0.024449667 4284044091
0.0085875457 0.037656244 0.025068643 4282859815
0.0065497016 0.037873555 0.026306601 4281609511
0.0045164828 0.038095556 0.027544601 4282399027
0.0031653317 0.037871983 0.028163576 4283187279
0.0011402817 0.038102157 0.029401571 4283582037
-0.00088005082 0.038336981 0.030639529 4283319646
-0.0028957156 0.038576473 0.031877488 4285819780
-0.0049067517 0.038820658 0.03311548 4283657097
-0.0069130757 0.039069492 0.034353439 4281551721
-0.0082444074 0.038865805 0.034972459 4281554299
-0.010242554 0.039122812 0.036210414 4283462296
-0.012236034 0.039384488 0.037448373 4285169566
-0.01422488 0.039650865 0.038686369 4286024875
-0.01554333 0.039459996 0.039305344 4286550442
-0.016859449 0.039271452 0.039924324 4286418856
-0.018836616 0.039549511 0.041162319 4286287783
-0.020146895 0.039366812 0.041781295 4286550955
-0.022115851 0.039653011 0.043019254 4285364115
-0.024080172 0.039943915 0.044257246 4284170074
-0.025381103 0.039770558 0.044876229 4284499039
-0.026679708 0.039599534 0.045495205 4285284696
-0.028632356 0.03990211 0.046733197 4284955731
-0.03058029 0.040209331 0.047971155 4285420655
-0.032523558 0.040521219 0.049209114 4288512926
-0.034462191 0.040837809 0.050447106 4286354092
-0.03574444 0.040683135 0.051066089 4285564576
-0.037674896 0.041007902 0.052304085 4281884545
-0.039600644 0.041337311 0.05354204 4280700271
-0.040873554 0.041191977 0.054161023 4284973216
-0.042791165 0.041529588 0.055399019 4286157490
-0.044058241 0.041390095 0.056017995 4285959332
-0.045967642 0.04173585 0.05725595 4285959332
-0.04722891 0.041602224 0.05787497 4286090404
-0.049130138 0.041956153 0.059112929 4286090404
-0.050385531 0.041828338 0.059731904 4286024611
-0.051638588 0.041702859 0.060350884 4285893025
-0.052889351 0.041579742 0.060969897 4284379788
-0.054775394 0.041948855 0.062207855 4285630369
-0.056020278 0.041831546 0.062826835 4284643474
-0.057898194 0.042208858 0.064064831 4286025127
-0.059137236 0.042097393 0.06468381 4284840853
-0.060373947 0.041988261 0.065302789 4284445581
-0.06224018 0.042377252 0.066540785 4283392893
-0.063471049 0.042273961 0.067159757 4283128184
-0.064699583 0.042173002 0.067778744 4284575630
-0.065925784 0.042074382 0.068397716 4286285735
-0.067149654 0.041978091 0.069016695 4286285735
-0.068371221 0.041884173 0.069635712 4288982730
-0.068965599 0.041289795 0.069635712 4292996095
-0.07018362 0.041199345 0.070254691 4293655551
-0.071399316 0.041111231 0.07087367 4293984255
-0.071991362 0.040519189 0.07087367 4293656575
-0.073203541 0.040434577 0.07149265 4293656575
-0.073794425 0.039843701 0.07149265 4292669439
-0.0743853 0.039252821 0.07149265 4291485167
-0.074976176 0.038661946 0.07149265 4290495967
-0.075567052 0.03807107 0.07149265 4289509072
-0.076157928 0.037480194 0.07149265 4288126905
-0.076748803 0.036889318 0.07149265 4287140010
-0.076727718 0.035782829 0.07087367 4287008424
-0.077319764 0.035190787 0.07087367 4287008424
-0.077911802 0.034598745 0.07087367 4286745766
-0.077895381 0.033487584 0.070254691 4287074731
-0.078488596 0.032894373 0.070254691 4287864247
-0.078475676 0.031779714 0.069635712 4287140524
-0.078465059 0.030662686 0.069016695 4285891481
-0.078456812 0.029543359 0.068397716 4285430930
-0.078450896 0.028421689 0.067778744 4284904332
-0.079048775 0.027823808 0.067778744 4284970125
-0.079046369 0.026698638 0.067159757 4284444298
-0.079046294 0.025571132 0.066540785 4278391342
-0.079048522 0.024441263 0.065921761 4278851641
-0.079053119 0.023309084 0.065302789 4278785848
-0.079060055 0.022174574 0.06468381 4278654262
-0.079663776 0.021570854 0.06468381 4278588469
-0.079674214 0.020432837 0.064064831 4278588467
-0.079686947 0.019292457 0.063445814 4278654260
-0.079702057 0.018149771 0.062826835 4278522676
-0.079719499 0.017004751 0.062207855 4279246399
-0.07973928 0.015857393 0.06158888 4285891742
-0.079761393 0.014707703 0.060969897 4285036433
-0.079785809 0.013555641 0.060350884 4285102224
-0.080397703 0.012943745 0.060350884 4285168017
-0.080425657 0.011788215 0.059731904 4285299605
-0.080455944 0.010630349 0.059112929 4285365398
-0.081070177 0.010016117 0.059112929 4284970388
-0.045803975 -0.025756039 0.020116739 4284970388
-0.046491776 -0.026443839 0.020116739 4291023344
-0.046602637 -0.027682278 0.019497763 4290233828
-0.047291603 -0.028371247 0.019497763 4290036449
-0.047980569 -0.029060213 0.019497763 4289510875
-0.048096105 -0.030303322 0.018878782 4289445082
-0.048786238 -0.030993456 0.018878782 4289182162
-0.048905272 -0.03224007 0.018259807 4288787404
-0.049026612 -0.033489052 0.017640788 4288655046
-0.049150318 -0.03474034 0.017021812 4288457667
-0.049276359 -0.03599396 0.016402829 4287800509
-0.049404737 -0.037249915 0.015783854 4287537337
-0.049535453 -0.038508207 0.015164873 4287142579
-0.049104374 -0.040332355 0.013926879 4286682028
-0.049240924 -0.041596483 0.013307903 4286287270
-0.049379814 -0.042862948 0.012688921 4286089891
-0.049521003 -0.044131786 0.012069909 4285629342
-0.049664561 -0.045402918 0.011450927 4285629342
-0.049810454 -0.046676394 0.01083195 4285564062
-0.049958687 -0.047952197 0.010212968 4285564062
-0.050109249 -0.049230345 0.0095939925 4285366683
-0.050816901 -0.049937993 0.0095939925 4285300890
-0.050970938 -0.051219672 0.008974974 4285300890
-0.051127337 -0.052503657 0.0083559984 4284774546
-0.051286079 -0.05378997 0.0077370168 4284248202
-0.051447149 -0.055078626 0.0071180412 4282998135
-0.052159473 -0.055790946 0.0071180412 4282866547
-0.052324053 -0.0570831 0.006499059 4283919235
-0.052490931 -0.058377627 0.0058800471 4283590270
-0.052660182 -0.059674453 0.005261065 4283392891
0.094337866 -0.22952993 -0.16867425 4284050308
0.093831144 -0.23116423 -0.16929321 4284576652
0.092786014 -0.23220937 -0.16929321 4284905617
0.092275791 -0.23384717 -0.1699122 4284905617
0.091763228 -0.23548731 -0.17053117 4285893027
0.091248356 -0.23712982 -0.17115019 4286353578
0.090731122 -0.23877464 -0.17176917 4286353578
0.090211548 -0.24042179 -0.17238815 4286353578
0.08968965 -0.24207127 -0.17300713 4286814127
0.089165434 -0.24372312 -0.17362614 4286287783
0.088638857 -0.24537727 -0.17424512 4284180609
0.088109948 -0.24703376 -0.1748641 4282338405
0.087578699 -0.2486926 -0.17548308 4281350740
0.087045118 -0.25035375 -0.17610206 4281613912
0.087031282 -0.25262281 -0.17734006 4281351764
0.08649186 -0.25428981 -0.17795902 4281680729
0.086469851 -0.25656703 -0.17919703 4281878106
0.085406043 -0.25763085 -0.17919703 4281943899
0.085376993 -0.25991505 -0.18043499 4282931048
0.084827065 -0.26159257 -0.18105397 4283654771
0.084274799 -0.2632724 -0.18167295 4282339170
0.08372023 -0.26495463 -0.18229195 4281286482
0.083163284 -0.26663914 -0.18291093 4281220943
0.082604013 -0.26832598 -0.18352993 4279970876
0.082042404 -0.27001518 -0.18414889 4279311661
0.080969252 -0.27108833 -0.18414889 4279903798
0.08040414 -0.27278101 -0.18476787 4280496187
0.079329818 -0.27385536 -0.18476787 4280430394
0.078761235 -0.27555159 -0.1853869 4280496187
0.077685744 -0.27662706 -0.1853869 4280693566
0.07661026 -0.27770254 -0.1853869 4280825152
0.075534761 -0.27877805 -0.1853869 4281022531
0.073958211 -0.27922696 -0.18476787 4280956738
0.072384022 -0.27967355 -0.18414889 4281154117
0.071809568 -0.28137559 -0.18476787 4281154633
0.070237719 -0.28181988 -0.18414889 4281023047
0.069660924 -0.28352425 -0.18476787 4281220426
0.06858661 -0.28459856 -0.18476787 4281286219
0.067512289 -0.28567287 -0.18476787 4281220426
0.066930853 -0.28738195 -0.1853869 4281286219
0.065855362 -0.28845745 -0.1853869 4281352012
0.065270409 -0.29016998 -0.18600586 4281352012
0.064193748 -0.29124665 -0.18600586 4281286219
0.063605286 -0.2929627 -0.18662484 4281352012
0.063014477 -0.29468107 -0.18724383 4281352012
0.062907219 -0.29704353 -0.18848182 4281286219
0.062795267 -0.29941064 -0.18971978 4281352012
0.17808616 0.062524512 -0.055796091 4287104270
0.17805178 0.061363719 -0.0564165 4287170063
0.17801507 0.060200594 -0.057036906 4287039247
0.17718364 0.059369165 -0.057036906 4286973454
0.175561 0.058872923 -0.0564165 4286908431
0.17473073 0.058042664 -0.0564165 4286908431
0.1731116 0.057549942 -0.055796091 4286646290
0.16088736 0.049831409 -0.053314418 4279376157
0.16393732 0.047249246 -0.0564165 4279507743
0.16388075 0.046066269 -0.057036906 4279441950
0.16304931 0.04523484 -0.057036906 4279376927
0.15913238 0.045823608 -0.054555234 4279311134
0.04737962 0.080506071 0.026098972 4289641945
0.04670468 0.079831131 0.026098972 4289577435
0.046778943 0.078778915 0.025478527 4289906400
0.046102822 0.078102797 0.025478527 4287999181
0.045426704 0.077426672 0.025478527 4287801802
0.044750582 0.076750554 0.025478527 4289250794
0.044818964 0.075692527 0.024858119 4289250794
0.043398332 0.075398304 0.025478527 4289448437
0.043464385 0.074337944 0.024858119 4289448437
0.042046092 0.074046068 0.025478527 4289580541
0.042109806 0.072983369 0.024858119 4289580541
0.040693842 0.072693817 0.025478527 4289842168
0.040017724 0.072017699 0.025478527 4290368511
0.039341602 0.071341574 0.025478527 4290564860
0.037930276 0.071056724 0.026098972 4290630653
0.037255313 0.070381768 0.026098972 4290762239
0.036580365 0.069706813 0.026098972 4290630653
0.035905413 0.069031864 0.026098972 4290761469
0.035230454 0.068356901 0.026098972 4290827262
0.034555502 0.067681953 0.026098972 4290827262
0.033880543 0.06700699 0.026098972 4290761469
0.033205591 0.066332042 0.026098972 4290827262
0.032530643 0.065657094 0.026098972 4290827262
0.031855691 0.064982146 0.026098972 4290827262
0.031180732 0.064307183 0.026098972 4291024639
0.030505782 0.063632235 0.026098972 4291024639
0.029830821 0.062957272 0.026098972 4290827260
0.029155871 0.06228232 0.026098972 4290827260
0.02848091 0.061607361 0.026098972 4290827260
0.027805969 0.06093242 0.026098972 4290827260
0.02713101 0.060257461 0.026098972 4290827260
0.02645606 0.059582509 0.026098972 4290761467
0.025781104 0.058907554 0.026098972 4291024639
0.025106149 0.058232598 0.026098972 4283263633
0.024431193 0.057557642 0.026098972 4282276738
0.024466923 0.056466896 0.025478527 4284187052
0.023790803 0.055790775 0.025478527 4284121259
0.023114683 0.055114657 0.025478527 4285041843
0.022438563 0.054438535 0.025478527 4288660458
0.021762438 0.05376241 0.025478527 4289447914
0.021086318 0.053086292 0.025478527 4289382121
0.020410193 0.052410167 0.025478527 4289644521
0.019734073 0.051734045 0.025478527 4288591833
0.019759249 0.050632808 0.024858119 4286881985
0.01908196 0.049955521 0.024858119 4287145157
0.01840467 0.049278229 0.024858119 4288461530
0.017727386 0.048600946 0.024858119 4288000979
0.017050097 0.047923658 0.024858119 4286425549
0.017068263 0.046815414 0.024237711 4283596450
0.01638981 0.04613696 0.024237711 4285832127
0.016404474 0.045025215 0.023617303 4287016401
0.015724851 0.044345591 0.023617303 4285896369
0.015045223 0.043665964 0.023617303 4286356920
0.014365599 0.042986341 0.023617303 4286618811
0.014374435 0.041868769 0.022996888 4287605706
0.013693642 0.041187976 0.022996888 4285891744
0.013012844 0.040507179 0.022996888 4285760158
0.012332051 0.039826386 0.022996888 4286285205
0.011651258 0.039145593 0.022996888 4285298310
0.010970466 0.0384648 0.022996888 4284374089
0.0096082268 0.038228966 0.023617303 4283913538
0.0082483189 0.037995469 0.024237711 4283386672
0.0068907565 0.037764318 0.024858119 4282070828
0.0048575327 0.037983984 0.026098972 4281741863
0.0028290208 0.038208295 0.027339788 4282399559
0.00080514047 0.038437299 0.028580647 4283320661
-0.0012140251 0.038670953 0.029821463 4283387749
-0.0032285228 0.038909279 0.031062279 4283519335
-0.0052383896 0.039152298 0.03230314 4285038748
-0.0072435467 0.039399963 0.033543956 4282867579
-0.0085742958 0.03919569 0.034164399 4281424509
-0.010571274 0.039451532 0.035405222 4282214025
-0.012563586 0.039712042 0.036646038 4283395985
-0.013884995 0.039517112 0.037266482 4284185501
-0.01520403 0.039324485 0.037886892 4285433508
-0.016520733 0.039134197 0.038507298 4286025645
-0.018497858 0.039409887 0.039748121 4286090920
-0.019808762 0.039225459 0.040368564 4286222506
-0.021777721 0.039509326 0.04160938 4286944430
-0.023082737 0.039330721 0.04222979 4283523194
-0.025043555 0.039622787 0.043470647 4283581021
-0.026342738 0.039450012 0.044091057 4284694358
-0.028295349 0.039750226 0.045331873 4284891737
-0.030243324 0.040055133 0.04657273 4284627027
-0.032186586 0.040364694 0.047813546 4286074473
-0.034125224 0.040678948 0.049054399 4287137950
-0.035408061 0.040522519 0.049674809 4287203743
-0.037338477 0.040844921 0.050915632 4284515234
-0.039264265 0.041172024 0.052156482 4281422963
-0.041185342 0.041503768 0.053397298 4281619060
-0.043101788 0.041840207 0.054638159 4285698226
-0.044368275 0.041700132 0.055258565 4286090918
-0.04627651 0.042044718 0.056499384 4285959332
-0.047537196 0.041910511 0.057119828 4286156197
-0.049437255 0.042263269 0.058360651 4286156197
-0.050692063 0.04213487 0.058981057 4286221990
-0.051944539 0.042008806 0.059601467 4286090404
-0.053194717 0.041885108 0.06022191 4286024611
-0.055079591 0.042253051 0.061462734 4286221738
-0.056323893 0.04213516 0.06208314 4283787397
-0.058200639 0.042511303 0.063323997 4285432736
-0.059439097 0.042399257 0.063944399 4285498529
-0.060675222 0.04228954 0.064564809 4285629855
-0.062540285 0.042677362 0.065805666 4283853444
-0.063770577 0.042573486 0.066426076 4283523712
-0.064998522 0.042471945 0.067046486 4283786884
-0.066224143 0.042372741 0.067666896 4286286248
-0.067447424 0.042275868 0.068287298 4286352041
-0.068668403 0.042181361 0.068907753 4286483368
-0.069887012 0.042089164 0.069528162 4288720330
-0.070480227 0.041495949 0.069528162 4292010230
-0.071695335 0.041407254 0.070148565 4293852415
-0.072287381 0.040815208 0.070148565 4293260799
-0.073498979 0.040730018 0.070768975 4291615983
-0.074089862 0.040139139 0.070768975 4290628323
-0.074680738 0.039548263 0.070768975 4289575635
-0.075271614 0.038957383 0.070768975 4288257978
-0.07586249 0.038366508 0.070768975 4287336876
-0.076453365 0.037775632 0.070768975 4286876325
-0.077044241 0.037184756 0.070768975 4286810532
-0.077023737 0.036078852 0.070148565 4286745766
-0.077615783 0.035486806 0.070148565 4287601075
-0.078207821 0.034894764 0.070148565 4287930810
-0.078191988 0.033784192 0.069528162 4286878122
-0.078785196 0.033190977 0.069528162 4285824664
-0.078772865 0.032076903 0.068907753 4285232527
-0.078762829 0.030960461 0.068287298 4285298320
-0.078755163 0.029841715 0.067666896 4285035148
-0.078749835 0.028720632 0.067046486 4284641673
-0.078746848 0.027597215 0.066426076 4285036431
-0.078746185 0.02647146 0.065805666 4284116103
-0.078747831 0.025343344 0.065185219 4278260526
-0.078751847 0.024212917 0.064564809 4278851641
-0.079354398 0.023610363 0.064564809 4278654262
-0.079361916 0.022476435 0.063944399 4278588469
-0.079371773 0.021340173 0.063323997 4278522676
-0.079976663 0.020735282 0.063323997 4278588467
-0.079989977 0.019595485 0.06270355 4278654260
-0.080005668 0.018453382 0.06208314 4278522676
-0.080023699 0.017308947 0.061462734 4279312192
-0.080044061 0.016162176 0.060842317 4285891742
-0.080066755 0.015013068 0.06022191 4285036433
-0.080091752 0.01386159 0.059601467 4284970638
-0.080119126 0.012707811 0.058981057 4285036431
-0.080148824 0.011551696 0.058360651 4285299603
-0.080763057 0.010937465 0.058360651 4285299603
-0.080796264 0.0097778467 0.057740241 4284838802
-0.046726599 -0.024864387 0.019894812 4284838802
-0.046835676 -0.026099939 0.019274361 4290562793
-0.047523476 -0.026787737 0.019274361 4289642713
-0.048211273 -0.027475536 0.019274361 4289511127
-0.048325054 -0.028715728 0.018653952 4289247955
-0.049014021 -0.029404694 0.018653952 4288984783
-0.049131304 -0.03064839 0.018033544 4288786632
-0.049250923 -0.031894419 0.017413136 4288589253
-0.049372844 -0.03314282 0.016792692 4288194497
-0.049497135 -0.034393523 0.016172284 4287799739
-0.049623765 -0.035646554 0.015551869 4287339190
-0.049752727 -0.036901928 0.014931461 4286878639
-0.049319312 -0.038721405 0.013690609 4286550442
-0.049454112 -0.039982617 0.013070201 4285958305
-0.049591247 -0.041246161 0.012449793 4285892512
-0.049730722 -0.042512041 0.011829378 4285695133
-0.049872495 -0.043780293 0.011208934 4285629340
-0.050016638 -0.045050845 0.010588526 4285497754
-0.050163113 -0.046323735 0.0099681169 4285564062
-0.050311927 -0.047598958 0.0093477089 4285432476
-0.050463077 -0.048876517 0.0087273009 4285300890
-0.051170725 -0.049584169 0.0087273009 4285103511
-0.051325347 -0.050865263 0.0081068501 4284642960
-0.051482331 -0.052148659 0.0074864421 4283919237
-0.052192319 -0.052858647 0.0074864421 4283063928
-0.052352808 -0.054145548 0.0068660341 4282669170
-0.052515633 -0.055434786 0.0062456261 4283590272
-0.052680798 -0.056726359 0.0056252177 4283261307
-0.053394288 -0.057439845 0.0056252177 4283787649
0.093781844 -0.2267891 -0.16871196 4284379786
0.092740223 -0.22783074 -0.16871196 4284774031
0.092235282 -0.22946215 -0.16933241 4284708238
0.092263453 -0.2316868 -0.17057323 4285497754
0.091218323 -0.23273192 -0.17057323 4286155684
0.090706341 -0.23437032 -0.17119364 4286353578
0.090724044 -0.23660551 -0.17243449 4286485164
0.089675412 -0.23765413 -0.17243449 4286550955
0.089686073 -0.2398963 -0.17367531 4286682541
0.089163579 -0.2415452 -0.17429572 4285628568
0.088111445 -0.24259734 -0.17429572 4283523192
0.087585486 -0.24424978 -0.17491616 4282008156
0.087582126 -0.24650595 -0.17615698 4281613398
0.087050296 -0.24816419 -0.17677739 4281482580
0.086516127 -0.24982478 -0.1773978 4281614166
0.085979655 -0.25148773 -0.17801826 4281746522
0.085440822 -0.25315297 -0.17863867 4281943901
0.085418783 -0.25542784 -0.17987947 4282207584
0.084874138 -0.25709894 -0.18049993 4283194479
0.084327124 -0.25877237 -0.18112034 4283325806
0.084293403 -0.2610589 -0.18236116 4281680981
0.083740555 -0.26273817 -0.18298157 4281088074
0.082672074 -0.26380664 -0.18298157 4280693316
0.082115747 -0.26548946 -0.18360201 4279509812
0.081557058 -0.26717454 -0.18422242 4279444019
0.080486238 -0.26824537 -0.18422242 4279772210
0.079924054 -0.26993397 -0.18484282 4280101175
0.079359524 -0.27162489 -0.18546323 4280233015
0.078286365 -0.27269807 -0.18546323 4280233015
0.077213213 -0.27377123 -0.18546323 4280364601
0.076140061 -0.27484438 -0.18546323 4280627773
0.075066909 -0.27591753 -0.18546323 4280693566
0.073492132 -0.27636588 -0.18484282 4281022531
0.071919695 -0.27681193 -0.18422242 4281154117
0.070848882 -0.27788273 -0.18422242 4281285703
0.069778062 -0.27895355 -0.18422242 4281285703
0.068210296 -0.27939489 -0.18360201 4281285703
0.067636423 -0.28109518 -0.18422242 4281286473
0.066070996 -0.28153419 -0.18360201 4281286473
0.065494791 -0.28323683 -0.18422242 4281286473
0.064423971 -0.28430763 -0.18422242 4281352266
0.063844256 -0.28601375 -0.18484282 4281286219
0.062772281 -0.28708574 -0.18484282 4281352012
0.062189065 -0.28879535 -0.18546323 4281352012
0.061603516 -0.29050732 -0.18608364 4281352012
0.061015662 -0.29222167 -0.1867041 4281417805
0.060425449 -0.29393828 -0.18732451 4281483598
0.060316999 -0.29629955 -0.18856531 4281352012
0.060203906 -0.29866552 -0.18980616 4281352012
0.17693685 0.065580085 -0.054945964 4287235343
0.17690773 0.064425729 -0.055567808 4287169550
0.17608097 0.063598961 -0.055567808 4287104270
0.17604838 0.06244107 -0.056189682 4287235856
0.17601342 0.061280865 -0.056811519 4287170063
0.17439254 0.060785215 -0.056189682 4287170063
0.1735646 0.059957281 -0.056189682 4286908433
0.1711577 0.059800934 -0.054945964 4286908433
0.16796723 0.0599862 -0.053080451 4286711567
0.16478372 0.060178474 -0.051214892 4286777360
0.16352218 0.047664374 -0.057433359 4279507997
0.16423818 0.046129834 -0.058677074 4279573790
0.046212908 0.082264796 0.026516004 4289839840
0.046291221 0.08121787 0.025894163 4290037219
0.045617439 0.080544084 0.025894163 4290103527
0.044943657 0.079870306 0.025894163 4290432492
0.044269867 0.079196513 0.025894163 4290103791
0.043596078 0.078522727 0.025894163 4289248482
0.04366738 0.07746879 0.025272323 4289117925
0.042992432 0.076793835 0.025272323 4289117925
0.042317469 0.076118879 0.025272323 4289118699
0.041642521 0.075443923 0.025272323 4289447664
0.040967558 0.074768968 0.025272323 4289316337
0.040292609 0.074094012 0.025272323 4289842681
0.03887957 0.073806219 0.025894163 4290565373
0.038205788 0.07313244 0.025894163 4290828543
0.037532009 0.072458655 0.025894163 4290893823
0.036858216 0.071784869 0.025894163 4290959615
0.036184426 0.071111076 0.025894163 4290893823
0.035510644 0.070437297 0.025894163 4290762237
0.034836855 0.069763504 0.025894163 4290762237
0.033433162 0.069485053 0.026516004 4290959615
0.032760542 0.06881243 0.026516004 4290762237
0.032087918 0.068139806 0.026516004 4290762237
0.03141531 0.067467198 0.026516004 4290893823
0.031467929 0.066394582 0.025894163 4290762237
0.03079414 0.065720789 0.025894163 4290893823
0.030120349 0.065046996 0.025894163 4290893823
0.029446568 0.064373218 0.025894163 4290893823
0.028772777 0.063699424 0.025894163 4290762237
0.028098997 0.063025646 0.025894163 4290893823
0.027425205 0.062351853 0.025894163 4290762237
0.026751425 0.061678074 0.025894163 4290893053
0.026077634 0.061004281 0.025894163 4290827260
0.025403854 0.060330503 0.025894163 4290695674
0.024730062 0.059656709 0.025894163 4290893053
0.024056276 0.058982924 0.025894163 4287933653
0.023382491 0.058309138 0.025894163 4283393936
0.022708705 0.057635352 0.025894163 4283857569
0.022034919 0.056961566 0.025894163 4283923362
0.02206886 0.055870265 0.025272323 4282147467
0.021393904 0.055195309 0.025272323 4285305531
0.020718949 0.054520354 0.025272323 4289251048
0.020043993 0.053845398 0.025272323 4289053669
0.019369038 0.053170446 0.025272323 4289053154
0.018694082 0.052495491 0.025272323 4288132052
0.018719885 0.051395983 0.024650447 4287605708
0.018043766 0.050719865 0.024650447 4288592603
0.017367641 0.050043739 0.024650447 4288593116
0.016691526 0.049367625 0.024650447 4288066772
0.016015401 0.0486915 0.024650447 4287214293
0.016034162 0.047585014 0.024028612 4284977331
0.015356868 0.046907719 0.024028612 4284450474
0.015372122 0.045797732 0.023406772 4289121777
0.014693663 0.045119271 0.023406772 4288986841
0.014705408 0.044005778 0.022784932 4288789462
0.014025785 0.043326154 0.022784932 4284579741
0.013346167 0.042646535 0.022784932 4287079875
0.013353245 0.04152837 0.022163091 4287011516
0.012672448 0.040847573 0.022163091 4285300898
0.011991655 0.04016678 0.022163091 4285825688
