# .PCD v0.7 - Point Cloud Data file format
VERSION 0.7
FIELDS x y z rgb
SIZE 4 4 4 4
TYPE F F F U
COUNT 1 1 1 1
WIDTH 998
HEIGHT 1
VIEWPOINT 0 0 0 1 0 0 0
POINTS 998
DATA ascii
-0.055938475 -0.042760219 0.019166553 4289435697
-0.055776704 -0.044059735 0.018722093 4289173027
-0.055614937 -0.04535925 0.018277634 4289173027
-0.055140462 -0.046273004 0.016963944 4288975900
-0.054978389 -0.047574963 0.016518647 4288910375
-0.054816313 -0.048876926 0.01607335 4288712746
-0.054340605 -0.049800448 0.01475626 4288581160
-0.054178223 -0.051104855 0.014310126 4288449070
-0.053701621 -0.052035738 0.012990578 4288383792
-0.053538937 -0.053342596 0.012543607 4288187433
-0.05337625 -0.05464945 0.012096635 4288121892
-0.053213567 -0.055956308 0.011649664 4288121892
-0.053050883 -0.057263162 0.011202694 4287595557
-0.0528882 -0.05857002 0.010755722 4287792954
-0.052725516 -0.059876874 0.010308751 4283056653
-0.052562829 -0.061183732 0.0098617803 4279764480
-0.05271681 -0.06284453 0.01029492 4280290816
-0.052554429 -0.06414894 0.0098487856 4279766528
-0.052074779 -0.065104298 0.0085208667 4279635456
-0.051594518 -0.066064551 0.0071912743 4279438592
-0.05111365 -0.0670297 0.0058600074 4279372800
-0.050632168 -0.067999735 0.0045270668 4279570178
-0.049831573 -0.068635389 0.0023072665 4279570948
-0.04934857 -0.069617666 0.00097014039 4279636993
-0.048545841 -0.070270456 -0.0012555191 4279636224
-0.047741909 -0.070933051 -0.003484474 4283057457
-0.046936762 -0.071605429 -0.0057167769 4293055372
-0.046450388 -0.07261461 -0.0070631634 4292921949
-0.045963425 -0.073628701 -0.0084111709 4293183572
-0.045475855 -0.074647687 -0.009760852 4290815024
-0.044987675 -0.075671569 -0.011112207 4281275904
-0.044498883 -0.076700345 -0.012465236 4279964421
0.0077290251 -0.067383207 -0.1574533 4280688386
0.0076137185 -0.069354832 -0.15712641 4280754179
0.0078263655 -0.071063049 -0.15771066 4280950786
0.0083678802 -0.07251519 -0.15920855 4280557824
0.017311852 -0.1443629 -0.18378191 4282595078
0.017182836 -0.14622438 -0.18341735 4282135297
0.016368726 -0.14837773 -0.18115033 4281214726
0.015895322 -0.15037046 -0.17982949 4279635456
0.015420724 -0.15235341 -0.17850536 4279307008
0.014944883 -0.15432656 -0.17717783 4279372800
0.014811318 -0.15615134 -0.17680077 4279176192
0.014677142 -0.1579712 -0.17642204 4279176704
0.014886437 -0.15965249 -0.17699707 4279307776
0.015095735 -0.1613338 -0.17757212 4279570176
0.015305029 -0.16301508 -0.17814715 4279438592
0.015514325 -0.16469638 -0.17872219 4279635969
0.015723621 -0.16637766 -0.17929722 4279636224
0.015932918 -0.16805896 -0.17987226 4279701504
0.016142214 -0.16974024 -0.1804473 4280029954
0.01635151 -0.17142154 -0.18102233 4280095747
0.016560806 -0.17310284 -0.18159737 4280293124
0.016770102 -0.17478414 -0.1821724 4280555778
0.016979396 -0.17646542 -0.18274744 4280818948
0.016841261 -0.17825349 -0.18235782 4280950786
0.017050255 -0.17993234 -0.18293202 4280950786
0.016911203 -0.18171304 -0.1825399 4281409539
0.016771523 -0.18348889 -0.18214604 4281607172
0.016979905 -0.18516284 -0.18271856 4282066688
0.017188288 -0.18683679 -0.18329109 4282066688
0.017396668 -0.18851073 -0.18386361 4282329859
0.017605051 -0.19018468 -0.18443614 4282395654
0.017813435 -0.19185865 -0.18500866 4282199045
0.017671639 -0.19361733 -0.184609 4282462215
0.01752924 -0.19537114 -0.18420768 4282462215
0.01738623 -0.19712006 -0.18380468 4282527492
0.017593699 -0.19878666 -0.18437468 4282528774
0.017801164 -0.20045325 -0.18494469 4282462979
0.017656917 -0.20219238 -0.18453829 4282660610
0.017864078 -0.20385654 -0.18510745 4282792196
0.017718937 -0.20558833 -0.1846986 4283055368
0.017573183 -0.20731519 -0.18428805 4283187206
0.017779738 -0.20897447 -0.18485557 4283581702
0.017633073 -0.21069402 -0.18444251 4283711751
0.017839324 -0.21235085 -0.18500918 4283711751
0.017691741 -0.21406302 -0.1845936 4284303370
0.01754353 -0.21577033 -0.18417631 4284171784
0.017749172 -0.21742226 -0.18474132 4284237316
0.017600069 -0.21912223 -0.18432157 4284368904
0.017805403 -0.22077169 -0.18488573 4284500490
0.017655388 -0.22246432 -0.18446346 4284434956
0.017504761 -0.22415204 -0.18403953 4283975436
0.017709484 -0.22579661 -0.18460201 4284107022
0.017557925 -0.22747701 -0.18417551 4284173837
0.017405774 -0.2291525 -0.1837474 4284108044
0.017253017 -0.2308231 -0.1833176 4284108046
0.016742466 -0.23251724 -0.1818947 4284239112
0.016588163 -0.23417562 -0.18146068 4284239110
0.016075483 -0.23585264 -0.18003191 4284369417
0.015919678 -0.23749878 -0.17959376 4284369417
0.01576326 -0.23913999 -0.17915392 4284434443
0.015606216 -0.24077633 -0.17871235 4284434697
0.015448582 -0.24240777 -0.17826918 4284368130
0.01529034 -0.24403432 -0.17782432 4284303624
0.015131488 -0.24565595 -0.17737778 4284369413
0.014972006 -0.24727271 -0.17692952 4284369413
0.015172162 -0.24888058 -0.17747945 4284107778
0.015372319 -0.25048846 -0.17802937 4284042253
0.015572474 -0.25209633 -0.1785793 4284042251
0.015411491 -0.25370085 -0.1781269 4284042251
0.015249897 -0.25530049 -0.17767285 4284172806
0.015449442 -0.25690344 -0.17822109 4284499970
0.015286935 -0.25849572 -0.17776452 4284172554
0.015123819 -0.26008314 -0.17730628 4283713540
0.014960071 -0.26166561 -0.1768463 4283779333
0.015158703 -0.26326126 -0.17739202 4283845126
0.014630789 -0.26481593 -0.17592143 4284040968
0.014828812 -0.26640666 -0.17646548 4284367880
0.014662953 -0.26797202 -0.1759997 4284301837
0.014860674 -0.26956031 -0.17654294 4284170251
0.014693879 -0.27111834 -0.17607458 4283711753
0.014891292 -0.27270418 -0.17661697 4283515405
0.015088709 -0.27429006 -0.17715937 4285291818
0.015286122 -0.2758759 -0.17770176 4282133766
0.015483537 -0.27746174 -0.17824414 4283252247
0.01568095 -0.27904758 -0.17878653 4283450893
0.015878366 -0.28063342 -0.17932893 4283909134
0.016075781 -0.28221926 -0.17987132 4284039687
0.016273195 -0.2838051 -0.18041371 4283712266
0.016470607 -0.28539094 -0.1809561 4282922752
0.016668022 -0.28697678 -0.1814985 4282658563
0.016865438 -0.28856266 -0.18204089 4282725387
0.017062852 -0.2901485 -0.18258327 4283055116
0.017260268 -0.29173437 -0.18312567 4284171536
0.017457679 -0.29332018 -0.18366806 4284303122
0.017286032 -0.29483905 -0.18318638 4284368398
0.017852509 -0.29649189 -0.18475285 4284171523
0.017680254 -0.29800588 -0.18426949 4284433409
0.017877365 -0.29958928 -0.18481104 4284368132
-0.060006324 0.051430643 0.025856934 4292722521
-0.060127713 0.049527537 0.026208151 4294965620
-0.060249694 0.047629345 0.02656099 4294966117
-0.060080916 0.046273544 0.026097279 4294967142
-0.060203809 0.044382699 0.026452629 4294967143
-0.060035337 0.043029349 0.025989756 4294901616
-0.059866864 0.041675992 0.025526881 4293650523
-0.05999098 0.039794937 0.02588558 4294763376
-0.059822809 0.038444024 0.025423542 4288516429
-0.059654642 0.037093118 0.024961503 4288055878
-0.059486475 0.035742212 0.024499467 4291546778
-0.059318308 0.034391306 0.02403743 4293583994
-0.05898197 0.031689495 0.023113355 4293580887
-0.059108537 0.029827982 0.023478799 4294963054
-0.058940675 0.028479518 0.023017596 4294966633
-0.059068136 0.02662538 0.023385502 4294966893
-0.059196211 0.024776148 0.023755085 4294836077
-0.060440041 0.014621342 0.027296402 4294967157
-0.060572397 0.012806333 0.02767775 4294965623
-0.060705345 0.010996251 0.028060725 4293646439
-0.060838901 0.0091910576 0.028445369 4294304369
-0.060973067 0.0073907641 0.028831691 4292266079
-0.061107859 0.0055953301 0.029219734 4292134243
-0.060944263 0.0042811385 0.028770253 4292922466
-0.060780663 0.0029669327 0.028320769 4292067671
-0.060916658 0.0011813282 0.028712114 4291870292
-0.060753364 -0.00013042708 0.028263468 4291213641
-0.06059007 -0.0014421754 0.027814822 4291010566
-0.060426779 -0.0027539306 0.027366176 4292913152
-0.060263485 -0.0040656789 0.026917532 4292913152
-0.06010019 -0.0053774272 0.026468888 4292321280
-0.059936896 -0.0066891755 0.026020244 4291268864
-0.059773605 -0.0080009308 0.025571596 4289688064
-0.059610311 -0.0093126791 0.025122952 4291333381
-0.059447017 -0.01062443 0.024674308 4290938624
-0.059586361 -0.012383122 0.025074856 4293704457
-0.059423372 -0.013692424 0.024627049 4293703936
-0.059260383 -0.015001728 0.024179241 4293638144
-0.059097394 -0.016311029 0.023731433 4292783360
-0.059238262 -0.018057486 0.024136167 4292849152
-0.059075579 -0.019364344 0.023689196 4292652800
-0.058912896 -0.0206712 0.023242226 4292653825
-0.058750212 -0.021978054 0.022795254 4292260354
-0.058892604 -0.023712272 0.023204176 4291273475
-0.058730222 -0.02501668 0.022758042 4290418176
-0.058567844 -0.026321091 0.022311907 4287659526
-0.058405463 -0.027625497 0.021865774 4290753090
-0.058243085 -0.028929906 0.021419639 4290424897
-0.058080707 -0.030234316 0.020973505 4290359356
-0.057918325 -0.031538725 0.02052737 4290161977
-0.057755947 -0.032843135 0.020081237 4290226737
-0.057593565 -0.034147542 0.019635102 4290225967
-0.057431187 -0.035451949 0.019188968 4289962533
-0.05726881 -0.036756359 0.018742833 4289896486
-0.057106428 -0.038060769 0.0182967 4289830693
-0.057252798 -0.039763197 0.018716553 4289765416
-0.057090722 -0.041065156 0.018271256 4289305648
-0.05692865 -0.042367119 0.017825959 4289173295
-0.056766573 -0.043669082 0.017380662 4289041709
-0.056294531 -0.04458281 0.016066032 4289042213
-0.056132153 -0.045887221 0.015619896 4288779039
-0.055969771 -0.047191627 0.015173762 4288712996
-0.055496529 -0.048115171 0.013855834 4288317734
-0.055333845 -0.049422029 0.013408863 4288317734
-0.055171158 -0.050728884 0.012961891 4288383279
-0.054696698 -0.051662214 0.011640616 4288383792
-0.054533709 -0.05297152 0.011192808 4287990056
-0.05437072 -0.054280821 0.010744999 4287924776
-0.054207731 -0.055590127 0.010297191 4287727397
-0.054044742 -0.056899428 0.0098493835 4287332653
-0.053881753 -0.058208734 0.0094015747 4284569374
-0.05403237 -0.059876874 0.0098330947 4279503360
-0.053869687 -0.061183732 0.0093861232 4279897346
-0.053707004 -0.062490586 0.0089391526 4279765760
-0.05354432 -0.063797444 0.008492182 4279438592
-0.053381633 -0.065104298 0.0080452105 4279438592
-0.05290382 -0.066064551 0.0067147273 4279241984
-0.052425399 -0.0670297 0.0053825695 4279241984
-0.051630609 -0.067658007 0.0031634986 4279439362
-0.050834622 -0.068296127 0.00094113254 4279505155
-0.050037395 -0.068944022 -0.0012846345 4279964675
-0.049555622 -0.069936089 -0.0026259993 4288053850
-0.048439324 -0.070269205 -0.0057461071 4293119911
-0.047638442 -0.070946462 -0.0079819188 4293249642
-0.047153927 -0.071960561 -0.0093308166 4293775685
-0.046986673 -0.073304124 -0.0097903432 4289171759
-0.046501245 -0.074325554 -0.011141752 4282000384
-0.046015207 -0.075351886 -0.012494835 4280423680
-0.045847341 -0.076700345 -0.012956035 4279439108
0.0055924617 -0.063961886 -0.15690577 4279570948
0.0054802122 -0.065938406 -0.15657967 4279570946
0.0056928592 -0.067646623 -0.1571639 4279833348
0.0055797147 -0.069615781 -0.15683535 4279833348
0.0057920567 -0.071321547 -0.15741876 4280228358
0.0063307998 -0.072771259 -0.15891664 4280032514
0.0065434473 -0.074479468 -0.15950088 4280032514
0.015474624 -0.14622438 -0.18403909 4282069767
0.015347466 -0.14808097 -0.18367203 4280556800
0.014539458 -0.15022454 -0.18139893 4279898368
0.014070056 -0.15220992 -0.18007386 4279635458
0.013940156 -0.15404448 -0.17969926 4279635458
0.013468603 -0.15601274 -0.17836827 4279570178
0.013337179 -0.15783507 -0.17798948 4279439616
0.013205145 -0.15965249 -0.17760901 4279702016
0.01375638 -0.16120255 -0.17914122 4279898882
0.01396598 -0.16288628 -0.17971709 4279898882
0.014175581 -0.16457002 -0.18029296 4279898882
0.014385181 -0.16625376 -0.18086883 4280227329
0.014251626 -0.16805896 -0.18048419 4280489731
0.01446092 -0.16974024 -0.18105923 4280555778
0.014670217 -0.17142154 -0.18163426 4280818950
0.014879514 -0.17310284 -0.1822093 4280819970
0.01508881 -0.17478414 -0.18278433 4281148163
0.014953425 -0.17657463 -0.18239467 4281148933
0.014817433 -0.17836025 -0.18200333 4281541638
0.01468081 -0.180141 -0.18161026 4281541638
0.01488919 -0.18181492 -0.18218277 4281869830
0.015097572 -0.18348889 -0.18275531 4282002180
0.015305956 -0.18516284 -0.18332784 4282199296
0.015514338 -0.18683679 -0.18390036 4282725639
0.015375905 -0.18860282 -0.18350232 4283119366
0.015236868 -0.19036397 -0.18310261 4283381514
0.01544464 -0.19203302 -0.18367346 4283250698
0.015304685 -0.19378681 -0.18327123 4283316997
0.015512153 -0.19545344 -0.18384124 4283251204
0.015371265 -0.1971999 -0.18343645 4283251204
0.015927089 -0.19878666 -0.18498127 4283055622
0.015785592 -0.20052822 -0.18457481 4283186694
0.015643505 -0.20226489 -0.18416673 4283317508
0.015500811 -0.20399667 -0.18375698 4283317508
0.015707364 -0.20565595 -0.18432447 4283515659
0.015913917 -0.20731519 -0.18489198 4283450380
0.015770003 -0.20903718 -0.18447888 4283582216
0.015625481 -0.21075428 -0.18406411 4283909382
0.015831426 -0.21240866 -0.18462993 4283909382
0.015685966 -0.21411841 -0.18421258 4284369417
0.015891606 -0.21577033 -0.18477757 4284369415
0.015745256 -0.21747275 -0.18435778 4284172808
0.015598296 -0.21917027 -0.1839363 4284369417
0.015803326 -0.22081728 -0.18449962 4284435210
0.015655452 -0.22250746 -0.18407564 4284500749
0.015860178 -0.22415204 -0.18463811 4284172817
0.015711367 -0.22583486 -0.18421155 4284172819
0.015561969 -0.22751281 -0.18378338 4284173837
0.015766086 -0.2291525 -0.18434419 4284108044
0.015261347 -0.230854 -0.18292202 4284108046
0.015110119 -0.23251724 -0.18248883 4284305157
0.014958264 -0.23417562 -0.18205391 4284238851
0.014450478 -0.23585264 -0.18062337 4284500488
0.01429712 -0.23749878 -0.18018432 4284434695
0.014143151 -0.23913999 -0.17974359 4284500236
0.013632298 -0.24079254 -0.17830463 4284434697
0.013476808 -0.24242155 -0.17785972 4284368130
0.013677573 -0.24403432 -0.17841132 4284303624
0.013163975 -0.24566483 -0.17696482 4284238599
0.013364133 -0.24727271 -0.17751475 4284238599
0.013564289 -0.24888058 -0.17806466 4284172806
0.013406361 -0.25049001 -0.17761306 4283976720
0.013606212 -0.25209543 -0.17816214 4284173067
0.013447371 -0.25369751 -0.17770803 4284172036
0.013646918 -0.25530049 -0.17825627 4284303622
0.013487161 -0.25689521 -0.17779964 4284631042
0.013326796 -0.25848505 -0.17734134 4284172808
0.0131658 -0.26006997 -0.17688131 4283779331
0.013364434 -0.26166561 -0.17742705 4283910149
0.012842023 -0.26322517 -0.17595634 4284107528
0.013040047 -0.26481593 -0.17650039 4284040968
0.012876942 -0.26638374 -0.17603457 4284367880
0.012713204 -0.26794666 -0.175567 4284171021
0.012910618 -0.2695325 -0.17610939 4283778059
0.012745986 -0.27108806 -0.17563936 4283646473
0.012943096 -0.27267146 -0.17618091 4283252747
0.013140206 -0.27425486 -0.17672248 4286211367
0.012974357 -0.27580065 -0.1762491 4282330112
0.013171164 -0.2773816 -0.17678984 4283253001
0.013731536 -0.27900508 -0.17834714 4283450380
0.013928647 -0.28058848 -0.17888869 4283909132
0.014125754 -0.28217185 -0.17943025 4284039687
0.014322864 -0.28375524 -0.1799718 4283581702
0.014884761 -0.28539094 -0.18153331 4283186944
0.015082174 -0.28697678 -0.18207569 4282593283
0.014914195 -0.28850546 -0.18159647 4282921485
0.015111306 -0.29008886 -0.18213803 4282857225
0.015674422 -0.29173437 -0.18370289 4283974927
0.015505522 -0.29325566 -0.18322113 4284040720
0.015702633 -0.29483905 -0.18376268 4284171019
0.015532823 -0.29635301 -0.18327844 4284170755
0.01572963 -0.297934 -0.18381916 4284367620
0.015926434 -0.29951492 -0.18435988 4284433409
-0.061079018 0.051975477 0.024545077 4294965614
-0.061197635 0.050069954 0.024896299 4294967154
-0.061316881 0.048169278 0.025249237 4294901618
-0.06143672 0.046273544 0.025603807 4294901618
-0.061557166 0.044382699 0.025960047 4294967155
-0.061388694 0.043029349 0.025497174 4294901622
-0.061510053 0.041145839 0.025855925 4292729941
-0.061341885 0.039794937 0.02539389 4294040162
-0.061173718 0.038444024 0.02493185 4294633846
-0.061296314 0.036570281 0.025294002 4293712744
-0.061128449 0.035221819 0.0248328 4294965637
-0.060669214 0.034391306 0.02354574 4294967159
-0.060501046 0.033040393 0.0230837 4293713236
-0.06062486 0.031176444 0.023449201 4294965869
-0.060749266 0.029317411 0.023816323 4294966383
-0.060874283 0.027463278 0.024185119 4294967149
-0.060707029 0.026119709 0.023725592 4294901616
-0.060832959 0.024272913 0.024096901 4294901618
-0.061253008 0.021930201 0.025301602 4294901620
-0.061380461 0.02009565 0.025677098 4294967157
-0.061802622 0.017770099 0.026887609 4294967159
-0.061931599 0.015947778 0.027267288 4294901625
-0.062061202 0.014130326 0.027648691 4294901625
-0.06248641 0.011829242 0.028867571 4293844834
-0.062322203 0.010510149 0.028416416 4294237291
-0.062453616 0.008707406 0.02880279 4293776740
-0.062585659 0.0069095357 0.02919089 4293713012
-0.062422059 0.0055953301 0.028741404 4291542108
-0.062554993 0.0038048248 0.029131964 4294172020
-0.062391702 0.0024930765 0.02868332 4292198741
-0.062228408 0.0011813282 0.028234676 4291935569
-0.062065117 -0.00013042708 0.02778603 4291017036
-0.061901823 -0.0014421754 0.027337385 4290883372
-0.061738528 -0.0027539306 0.026888737 4291468801
-0.0618736 -0.0045273039 0.027285157 4291468801
-0.061710611 -0.0058366018 0.026837351 4291402240
-0.061547622 -0.0071459068 0.026389543 4290283264
-0.061384633 -0.0084552113 0.025941733 4289096960
-0.061221644 -0.0097645167 0.025493925 4290806534
-0.061058655 -0.011073817 0.025046118 4290938120
-0.060895666 -0.012383122 0.02459831 4293573132
-0.060732678 -0.013692424 0.024150502 4293310464
-0.060569689 -0.015001728 0.023702694 4293375488
-0.060707804 -0.016750632 0.024107482 4292652032
-0.06054512 -0.018057486 0.023660511 4292586240
-0.060382437 -0.019364344 0.023213539 4292587008
-0.06021975 -0.0206712 0.02276657 4292128256
-0.060359392 -0.022407861 0.023175543 4291733760
-0.060197011 -0.023712272 0.02272941 4290550016
-0.060034633 -0.02501668 0.022283275 4289892096
-0.059872251 -0.026321091 0.021837141 4286081537
-0.059709873 -0.027625497 0.021391006 4289568568
-0.059547495 -0.028929906 0.020944873 4290424127
-0.059385113 -0.030234316 0.020498738 4290160442
-0.059222735 -0.031538725 0.020052604 4290226235
-0.059060354 -0.032843135 0.019606471 4289831729
-0.058897976 -0.034147542 0.019160336 4289700908
-0.058735598 -0.035451949 0.018714203 4289503277
-0.058573216 -0.036756359 0.018268067 4289174058
-0.058410838 -0.038060769 0.017821934 4289042472
-0.058248457 -0.03936518 0.017375799 4289108771
-0.058086079 -0.040669587 0.016929667 4289108517
-0.057923697 -0.041973993 0.016483532 4288714281
-0.057761319 -0.0432784 0.016037399 4288648488
-0.057291437 -0.044194605 0.01472109 4288187937
-0.057128754 -0.045501459 0.014274119 4288122144
-0.05696607 -0.046808317 0.013827148 4288122142
-0.056494966 -0.047734305 0.012507492 4288252193
-0.056331977 -0.049043611 0.012059684 4288252193
-0.056168992 -0.050352912 0.011611876 4288251693
-0.05569667 -0.05128869 0.010288873 4288056108
-0.055533376 -0.052600443 0.0098402267 4287661350
-0.055060145 -0.053543564 0.0085147116 4285817633
-0.055206791 -0.055223942 0.0089429375 4282067456
-0.055043496 -0.056535695 0.0084942915 4280094208
-0.054880202 -0.057847444 0.0080456464 4279635969
-0.05502807 -0.059518036 0.0084772194 4279570178
-0.054865081 -0.060827337 0.0080294115 4279372800
-0.054702092 -0.062136643 0.0075816037 4279307008
-0.054539103 -0.063445948 0.0071337954 4279241729
-0.054063737 -0.064406194 0.0058024214 4279241984
-0.053587761 -0.065371342 0.0044693733 4279307522
-0.053111158 -0.066341363 0.0031345983 4279439108
-0.052320674 -0.066974588 0.00091212458 4279636487
-0.051528953 -0.067617588 -0.0013137501 4279899911
-0.051049929 -0.068607204 -0.0026551685 4283382034
-0.050256092 -0.069267355 -0.0048868493 4294963097
-0.049461022 -0.069937266 -0.0071219308 4294237061
-0.048664749 -0.07061699 -0.0093603078 4294366301
-0.048182376 -0.071633533 -0.010710934 4292789568
-0.048014816 -0.072979547 -0.011171297 4281211136
-0.04753153 -0.074003428 -0.012524433 4281013760
-0.047363665 -0.075351886 -0.012985635 4279307776
0.0032429465 -0.058829907 -0.15577316 4279176704
0.0031340579 -0.06081377 -0.15544868 4279242496
0.0033467051 -0.062521987 -0.15603292 4279374080
0.003236922 -0.064498492 -0.15570597 4279439875
0.0031265288 -0.066470094 -0.15537736 4279439875
0.0033385667 -0.068173416 -0.15595992 4279570948
0.0032272604 -0.070137687 -0.1556288 4279570948
0.0034389936 -0.071838558 -0.15621053 4279702786
0.0039746803 -0.073283374 -0.15770763 4279572481
0.0045109768 -0.074733078 -0.15920641 4279900674
0.005047882 -0.076187685 -0.16070686 4280426759
0.01397906 -0.1479326 -0.18524507 4280687616
0.013178717 -0.15007859 -0.1829702 4280489218
0.013052463 -0.15192296 -0.18259799 4280423942
0.012249074 -0.15404448 -0.18031475 4280423942
0.01245959 -0.15573557 -0.18089314 4280227331
0.012331221 -0.15756278 -0.18051514 4280162817
0.012202226 -0.15938511 -0.1801354 4280228096
0.01241213 -0.1610713 -0.18071212 4280489984
0.012622035 -0.16275749 -0.18128882 4280621569
0.012831941 -0.16444367 -0.18186553 4280686849
0.012701441 -0.16625376 -0.18148167 4280752896
0.012911042 -0.1679375 -0.18205754 4281146882
0.013120642 -0.16962123 -0.18263341 4280687104
0.012988925 -0.17142154 -0.18224621 4280950275
0.013198221 -0.17310284 -0.18282124 4281082624
0.013407517 -0.17478414 -0.18339628 4281345796
0.01327458 -0.17657463 -0.18300572 4281280773
0.012798477 -0.17846704 -0.181647 4281672965
0.01300686 -0.180141 -0.18221954 4281738758
0.013215239 -0.18181492 -0.18279205 4282133254
0.013423623 -0.18348889 -0.18336457 4282265602
0.01328825 -0.18525983 -0.18296732 4283055622
0.013152267 -0.18702587 -0.1825684 4283318280
0.013360037 -0.18869489 -0.18313923 4283318280
0.013223141 -0.1904536 -0.1827378 4283579399
0.01343061 -0.19212022 -0.18330783 4283316997
0.013638076 -0.19378681 -0.18387783 4283514372
0.01349994 -0.19553573 -0.18347299 4283514885
0.013361215 -0.19727975 -0.18306653 4283383299
0.013568074 -0.19894147 -0.18363486 4283318278
0.013428435 -0.20067814 -0.18322589 4283384073
0.013634989 -0.2023374 -0.1837934 4283711751
0.013841543 -0.20399667 -0.18436091 4283711751
0.013700687 -0.20572357 -0.18394858 4283843852
0.013559218 -0.20744553 -0.18353458 4283516173
0.013765164 -0.20909992 -0.18410042 4283779081
0.013622762 -0.21081455 -0.18368384 4284172554
0.013828403 -0.21246649 -0.18424883 4283909382
0.014034042 -0.21411841 -0.18481383 4284369417
0.013890442 -0.21582326 -0.18439397 4284369415
0.013746236 -0.21752325 -0.18397245 4284303622
0.013951266 -0.21917027 -0.18453577 4284435210
0.013806141 -0.22086287 -0.18411173 4284435210
0.014010869 -0.22250746 -0.18467422 4284500751
0.014215595 -0.22415204 -0.18523669 4284304405
0.01406923 -0.22583486 -0.18480924 4284303640
0.013922281 -0.22751281 -0.18438019 4284174091
0.013774722 -0.22918586 -0.18394946 4284042505
0.013626553 -0.230854 -0.18351704 4284239114
0.013477773 -0.23251724 -0.18308295 4284108294
0.012975775 -0.23420162 -0.18165308 4284173317
0.012825474 -0.23585264 -0.18121482 4284369417
0.012321363 -0.23751989 -0.17977916 4284369417
0.012169516 -0.23915866 -0.17933664 4284435210
0.012017081 -0.24079254 -0.17889251 4284369415
0.011864039 -0.24242155 -0.17844671 4284369154
0.011710388 -0.24404564 -0.17799924 4284237318
0.011556103 -0.24566483 -0.17755003 4284173321
0.011401231 -0.24727915 -0.17709921 4284173321
0.011601084 -0.24888459 -0.17764831 4284173069
0.0114453 -0.25049156 -0.17719497 4284238095
0.011644845 -0.25209454 -0.17774321 4284172804
0.011844392 -0.25369751 -0.17829147 4284303620
0.011687388 -0.25529468 -0.17783478 4284435206
0.011529773 -0.25688696 -0.17737642 4284565511
0.01137153 -0.25847435 -0.17691633 4284303622
0.011570163 -0.26006997 -0.17746207 4284107778
0.011768797 -0.26166561 -0.17800781 4283975940
0.011251281 -0.26322517 -0.17653532 4284107526
0.011449304 -0.26481593 -0.17707938 4284172554
0.010929939 -0.26636079 -0.17560181 4284499466
0.011127356 -0.26794666 -0.1761442 4284236044
0.01132477 -0.2695325 -0.17668658 4283712266
0.01080299 -0.27105778 -0.17520238 4283712266
0.010999793 -0.27263874 -0.17574309 4283384333
0.0111966 -0.27421969 -0.17628382 4284435728
0.011393404 -0.27580065 -0.17682452 4282066688
0.011590211 -0.2773816 -0.17736524 4283514376
0.011787014 -0.27896255 -0.17790596 4283974927
0.011983821 -0.28054351 -0.17844668 4284039946
0.012180625 -0.28212446 -0.1789874 4284105739
0.012739464 -0.28375524 -0.18054812 4283778827
0.012936574 -0.28533867 -0.18108967 4283252483
0.013133684 -0.28692207 -0.18163122 4282593536
0.013330795 -0.28850546 -0.18217278 4282921483
0.01316465 -0.2900292 -0.18169099 4282659846
0.013361456 -0.29161018 -0.18223171 4283974925
0.01355826 -0.29319111 -0.18277243 4284040718
0.013755067 -0.29477209 -0.18331315 4284105478
0.013951871 -0.29635301 -0.18385385 4284367620
0.014148678 -0.297934 -0.18439458 4284367620
0.013980398 -0.29944059 -0.18390691 4284499204
-0.062041346 0.054433178 0.022881838 4294965874
-0.062156603 0.052520305 0.023231436 4294966638
-0.06227247 0.050612342 0.023582714 4294901618
-0.062675126 0.048169278 0.024754876 4294901623
-0.062792517 0.046273544 0.025110336 4294901623
-0.06291052 0.044382699 0.025467467 4294836086
-0.062742047 0.043029349 0.025004594 4294901622
-0.062860958 0.041145839 0.025364235 4293124697
-0.062692791 0.039794937 0.0249022 4292461382
-0.062812634 0.037918739 0.025264401 4294964082
-0.062644772 0.036570281 0.024803203 4294965881
-0.062476911 0.035221819 0.024342 4294964327
-0.062309045 0.033873364 0.023880802 4294966369
-0.062141184 0.032524902 0.0234196 4294967146
-0.061973322 0.031176444 0.022958402 4294835563
-0.062095281 0.029317411 0.023326414 4294967149
-0.06250798 0.02695515 0.024526151 4294901616
-0.062631458 0.025108354 0.02489835 4294901620
-0.06275557 0.023266425 0.025272273 4294901622
-0.06288027 0.021429418 0.025647817 4294901622
-0.063296929 0.019098978 0.02685844 4294901624
-0.063423157 0.017274216 0.027238173 4294901624
-0.063550003 0.015454305 0.027619626 4294901623
-0.063677445 0.01363933 0.028002707 4294967163
-0.064098068 0.011340697 0.029224208 4294764389
-0.063934162 0.010024055 0.028773891 4294962795
-0.064063452 0.0082237273 0.029162042 4294962795
-0.064193331 0.0064283283 0.029551817 4294896766
-0.063736252 0.0055953301 0.028263075 4289833803
-0.063866742 0.0038048248 0.028654527 4294764668
-0.063703455 0.0024930765 0.028205883 4292724822
-0.063540161 0.0011813282 0.027757239 4291474755
-0.063671865 -0.00059939659 0.028152034 4290753610
-0.063508876 -0.0019086944 0.027704228 4290884428
-0.063345887 -0.0032179991 0.027256418 4290219532
-0.063182898 -0.0045273039 0.02680861 4290613506
-0.063019916 -0.0058366018 0.026360804 4290218752
-0.062856928 -0.0071459068 0.025912995 4289692416
-0.062693939 -0.0084552113 0.025465187 4288637952
-0.06253095 -0.0097645167 0.025017379 4290018051
-0.062367957 -0.011073817 0.024569571 4290939153
-0.062204968 -0.012383122 0.024121761 4292718866
-0.062340029 -0.014136921 0.024525767 4292456448
-0.062177345 -0.015443775 0.024078798 4292521472
-0.062014658 -0.016750632 0.023631824 4291928576
-0.061851975 -0.018057486 0.023184855 4291796992
-0.061689291 -0.019364344 0.022737883 4291796224
-0.061826181 -0.021103458 0.023146911 4291534848
-0.061663799 -0.022407861 0.022700777 4291536129
-0.061501421 -0.023712272 0.022254644 4289498887
-0.061339039 -0.02501668 0.021808509 4291143712
-0.061176661 -0.026321091 0.021362375 4288056110
-0.061014283 -0.027625497 0.020916242 4286608151
-0.060851902 -0.028929906 0.020470107 4289831992
-0.060689524 -0.030234316 0.020023974 4289831479
-0.060225133 -0.031126045 0.018715145 4289765686
-0.060062449 -0.032432899 0.018268174 4289437230
-0.059899766 -0.033739757 0.017821202 4289305898
-0.059737083 -0.035046611 0.017374232 4288779300
-0.059574399 -0.036353469 0.016927259 4288845863
-0.059411712 -0.037660323 0.016480289 4288714277
-0.059249029 -0.038967181 0.016033318 4288714531
-0.059086345 -0.040274035 0.015586347 4288713507
-0.058923662 -0.041580893 0.015139376 4288253730
-0.058760978 -0.042887747 0.014692405 4288187937
-0.058293238 -0.043806396 0.01337437 4287990304
-0.058130249 -0.045115702 0.012926561 4287990817
-0.05796726 -0.046425004 0.012478753 4288056862
-0.057498302 -0.047353443 0.011157369 4288121120
-0.057028733 -0.048286773 0.009834311 4288121120
-0.056865137 -0.04960097 0.0093848296 4287923241
-0.056394637 -0.050541621 0.0080592092 4287464491
-0.056230731 -0.051858269 0.0076088891 4286411303
-0.05606683 -0.053174913 0.00715857 4279896576
-0.055902928 -0.054491557 0.0067082513 4280357120
-0.055739027 -0.055808201 0.0062579317 4279634944
-0.055883545 -0.057486158 0.0066879368 4279241984
-0.055719949 -0.058800355 0.006238455 4279241984
-0.055556349 -0.060114551 0.0057889726 4279372800
-0.055702072 -0.061782695 0.0062222737 4279307008
-0.055229153 -0.062742949 0.0048900088 4279241729
-0.055065557 -0.064057142 0.0044405265 4279307776
-0.054591704 -0.065024719 0.0031056979 4279439108
-0.053806726 -0.065653048 0.00088311674 4279439108
-0.053331368 -0.066632882 -0.00045584442 4279768073
-0.052855384 -0.067617588 -0.0017965324 4279898880
-0.052067358 -0.068270393 -0.0040274835 4288975425
-0.051278111 -0.06893298 -0.0062617832 4294967182
-0.05048763 -0.06960535 -0.0084994836 4293844332
-0.050008312 -0.07061699 -0.0098493258 4293578318
-0.049528386 -0.071633533 -0.011200842 4290157373
-0.04904785 -0.072654963 -0.012554033 4280489984
-0.048879988 -0.074003428 -0.013015233 4280489984
0.0011063835 -0.05540859 -0.15522563 4278979840
0.0010005519 -0.057397347 -0.15490192 4278979840
0.0012131989 -0.059105556 -0.15548617 4279176449
0.0011064721 -0.061086956 -0.15516001 4279176449
0.00099913625 -0.063063458 -0.15483217 4279176449
0.0012111739 -0.06476678 -0.15541475 4279242242
0.0011029242 -0.066735938 -0.1550844 4279111426
0.00099404517 -0.068700224 -0.15475233 4279243012
0.0012054738 -0.070398651 -0.15533322 4279374080
0.0014169024 -0.072097071 -0.15591411 4279439873
0.001949857 -0.073539428 -0.15741132 4279505666
0.0024834007 -0.074986689 -0.15891016 4279440643
0.0033396704 -0.076187685 -0.1613286 4279703299
0.0038747569 -0.077647172 -0.16283168 4279440128
0.012270847 -0.1479326 -0.1858668 4281082880
0.011813062 -0.14993267 -0.18454319 4280950275
0.011354039 -0.15192296 -0.18321617 4280883460
0.011229644 -0.15376242 -0.18284146 4280883460
0.010768509 -0.15573557 -0.18150865 4280556546
0.010979022 -0.15742664 -0.18208702 4280556800
0.010852798 -0.15925141 -0.18170729 4280819200
0.011063009 -0.16094005 -0.18228485 4280884480
0.011273217 -0.16262868 -0.18286239 4281016064
0.011145755 -0.16444367 -0.18247925 4281081089
0.01135566 -0.16612986 -0.18305597 4281082112
0.011227303 -0.1679375 -0.18267037 4281344513
0.011436903 -0.16962123 -0.18324624 4281344000
0.011307633 -0.17142154 -0.18285814 4281607170
0.01151693 -0.17310284 -0.18343319 4281870594
0.011726226 -0.17478414 -0.18400823 4281804800
0.011255951 -0.17668386 -0.18265028 4282068224
0.011124527 -0.17846704 -0.18225627 4282792198
0.011332911 -0.180141 -0.1828288 4282989577
0.011541289 -0.18181492 -0.18340132 4283646991
0.011408669 -0.18358833 -0.18300401 4283713036
0.011275438 -0.1853568 -0.18260503 4283778829
0.011141598 -0.18712041 -0.18220438 4283647755
0.011349064 -0.188787 -0.18277438 4283713548
0.011556532 -0.1904536 -0.18334439 4283647495
0.011764002 -0.19212022 -0.18391442 4283843589
0.011285783 -0.19395632 -0.18253465 4283975688
0.011492642 -0.19561803 -0.183103 4283909643
0.011356061 -0.19735961 -0.18269481 4283646471
0.011562616 -0.19901888 -0.18326232 4283712516
0.011425117 -0.20075308 -0.18285161 4283843850
0.011631368 -0.20240991 -0.18341827 4283974407
0.011492957 -0.20413679 -0.18300506 4284172815
0.011353917 -0.20585878 -0.18259013 4284172815
0.011559557 -0.20751071 -0.18315512 4283844624
0.011765198 -0.20916264 -0.18372011 4283975688
0.011970838 -0.21081455 -0.1842851 4284304392
0.012176478 -0.21246649 -0.1848501 4284172806
0.012035629 -0.21417378 -0.18443018 4284304392
0.011894173 -0.21587619 -0.1840086 4284369413
0.011752109 -0.21757372 -0.18358535 4284435460
0.011956835 -0.2192183 -0.18414783 4284238601
0.012161559 -0.22086287 -0.18471031 4284304394
0.012366286 -0.22250746 -0.1852728 4284303888
0.012571013 -0.22415204 -0.18583527 4284369683
0.012078477 -0.22587313 -0.18441617 4284303890
0.012282593 -0.22751281 -0.18497698 4284174089
0.012137482 -0.22918586 -0.18454535 4283976710
0.011642226 -0.23088491 -0.18311879 4284172804
0.011495568 -0.2325457 -0.18268292 4284042501
0.010998181 -0.23422764 -0.1812505 4284107526
0.010850023 -0.23587622 -0.1808105 4284369417
0.010701254 -0.23751989 -0.18036883 4284303624
0.010200797 -0.23917733 -0.17892797 4284435210
0.010050504 -0.24080877 -0.17848212 4284238851
0.0098996051 -0.24243532 -0.17803459 4284172288
0.0097480742 -0.24405697 -0.17758532 4284303624
0.0095959539 -0.24567372 -0.17713445 4284173067
0.0094432253 -0.24728559 -0.17668189 4284173067
0.0096427724 -0.24888857 -0.17723015 4284173069
0.0098423213 -0.25049156 -0.17777841 4284238601
0.010041866 -0.25209454 -0.17832665 4284173056
0.0098876143 -0.25369415 -0.17786992 4284369415
0.009732754 -0.25528887 -0.17741151 4284566794
0.0099316891 -0.25688696 -0.17795807 4284368134
0.0097758928 -0.25847435 -0.1774971 4284303622
0.0099745272 -0.26006997 -0.17804284 4284172806
0.0098178377 -0.26165003 -0.1775794 4283975942
0.0096605392 -0.26322517 -0.17711431 4283910149
0.0095026316 -0.26479542 -0.17664753 4284238601
0.0093440916 -0.26636079 -0.17617901 4284499720
0.0091849677 -0.26792127 -0.17570889 4284105226
0.0093820747 -0.26950464 -0.17625043 4283843339
0.0092220372 -0.27105778 -0.17577779 4283777546
0.0094188405 -0.27263874 -0.17631851 4283384073
0.0096156476 -0.27421969 -0.17685923 4283909897
0.0094543863 -0.27576303 -0.17638324 4282067200
0.010009258 -0.2773816 -0.17794067 4283317256
0.010206061 -0.27896255 -0.17848139 4283843600
0.010402869 -0.28054351 -0.1790221 4283908360
0.010599672 -0.28212446 -0.17956282 4283909643
0.010796476 -0.28370538 -0.18010353 4283778827
0.010993282 -0.28528637 -0.18064426 4283384069
0.011550284 -0.28692207 -0.18220754 4282593536
0.011386893 -0.28844827 -0.1817257 4282855690
0.011583697 -0.2900292 -0.1822664 4282659848
0.011780503 -0.29161018 -0.18280713 4283777548
0.011977307 -0.29319111 -0.18334784 4283974927
0.011812393 -0.29470509 -0.1828618 4284171271
0.012008892 -0.2962836 -0.18340169 4284368134
0.011843065 -0.29779023 -0.18291315 4284302339
0.012039262 -0.2993663 -0.18345219 4284237316
-0.062903374 0.058825813 0.020872032 4294967149
-0.063014664 0.056900702 0.021218335 4294836074
-0.063126579 0.054980457 0.021566363 4294901611
-0.063239083 0.05306514 0.021916017 4294901625
-0.063635617 0.050612342 0.023086568 4294901627
-0.063749641 0.048709255 0.023440406 4294901629
-0.063864298 0.046811037 0.023795966 4294901629
-0.063979544 0.044917736 0.024153151 4294901629
-0.0640954 0.043029349 0.024512013 4294836086
-0.064211868 0.041145839 0.024872545 4294967157
-0.064043701 0.039794937 0.02441051 4294965887
-0.064161099 0.037918739 0.024773601 4294173797
-0.06399323 0.036570281 0.024312403 4294305383
-0.063825369 0.035221819 0.023851201 4294967128
-0.063657507 0.033873364 0.023390003 4294967138
-0.063776411 0.032009434 0.023757232 4294836074
-0.063608855 0.030663423 0.023296868 4294836088
-0.063728668 0.028806839 0.023666609 4294901625
-0.063849092 0.02695515 0.024038024 4294967167
-0.064258136 0.02460265 0.025242943 4294770561
-0.06438008 0.022763198 0.025618544 4294901627
-0.064791232 0.020427858 0.026829271 4294836088
-0.064914711 0.018600645 0.027209057 4294901620
-0.065038808 0.0167783 0.027590567 4294901620
-0.065163501 0.014960866 0.027973698 4294835313
-0.065578617 0.012657346 0.029195309 4294700663
-0.065704845 0.010852125 0.029582677 4293645926
-0.065250807 0.010024055 0.028294669 4294962548
-0.065377653 0.0082237273 0.028683713 4294633069
-0.065505087 0.0064283283 0.02907438 4293646187
-0.065341793 0.0051165731 0.028625732 4291150178
-0.065178499 0.0038048248 0.028177088 4291674212
-0.065015204 0.0024930765 0.027728444 4293646439
-0.06485191 0.0011813282 0.0272798 4291738442
-0.06498117 -0.00059939659 0.027675487 4290424647
-0.064818181 -0.0019086944 0.027227679 4290291526
-0.064655192 -0.0032179991 0.026779871 4289298957
-0.064492203 -0.0045273039 0.026332064 4289759232
-0.064622991 -0.0062957834 0.026731936 4290087680
-0.064166225 -0.0071459068 0.025436448 4289167104
-0.064297624 -0.0089094928 0.025837997 4288703488
-0.064134941 -0.01021635 0.025391024 4288505344
-0.06397225 -0.011523208 0.024944052 4290939675
-0.063809566 -0.012830063 0.024497082 4291864592
-0.063646883 -0.014136921 0.024050111 4292062976
-0.063484199 -0.015443775 0.023603139 4292193024
-0.063321516 -0.016750632 0.023156168 4291731200
-0.063158832 -0.018057486 0.022709198 4291533824
-0.062996149 -0.019364344 0.022262227 4291401984
-0.063130587 -0.021103458 0.022672145 4291468032
-0.062968209 -0.022407861 0.022226011 4291272705
-0.062805831 -0.023712272 0.021779878 4289828117
-0.062643446 -0.02501668 0.021333743 4290946598
-0.062481068 -0.026321091 0.02088761 4288582452
-0.06231869 -0.027625497 0.020441474 4286345492
-0.062156312 -0.028929906 0.019995341 4289568818
-0.061694674 -0.029819191 0.018686458 4289634096
-0.061531991 -0.031126045 0.018239487 4289568303
-0.061369307 -0.032432899 0.017792517 4289239851
-0.061206624 -0.033739757 0.017345546 4289108517
-0.061043937 -0.035046611 0.016898574 4288844834
-0.060881253 -0.036353469 0.016451603 4288779300
-0.06071857 -0.037660323 0.016004633 4288713507
-0.060555886 -0.038967181 0.015557661 4288450855
-0.060393203 -0.040274035 0.01511069 4288384292
-0.060230516 -0.041580893 0.01466372 4288055329
-0.059765529 -0.042497091 0.01334563 4288121122
-0.05960254 -0.043806396 0.012897822 4287990306
-0.05913664 -0.044729941 0.011577222 4287925024
-0.058670126 -0.04565838 0.010254947 4287925024
-0.05850653 -0.046972577 0.0098054651 4287464745
-0.058039088 -0.047908332 0.0084806262 4287596331
-0.057571054 -0.048849005 0.0071541672 4283976712
-0.057406846 -0.050168097 0.0067030117 4280424192
-0.057242639 -0.051487189 0.0062518553 4280028672
-0.056773387 -0.052437656 0.0049220473 4279701251
-0.056914221 -0.054125376 0.0053495429 4279503872
-0.056750014 -0.055444468 0.0048983865 4279110656
-0.056585807 -0.05676356 0.0044472301 4279044864
-0.056727864 -0.058441494 0.0048780739 4279176192
-0.056563962 -0.059758138 0.0044277548 4279241984
-0.056400061 -0.061074782 0.0039774356 4279176192
-0.056236155 -0.062391426 0.0035271163 4279307776
-0.055764772 -0.063359022 0.0021914495 4279439360
-0.055292778 -0.064331509 0.00085410872 4279570948
-0.054820172 -0.065308891 -0.00048490605 4279636741
-0.054346941 -0.066291153 -0.0018256479 4279833088
-0.053873118 -0.067278326 -0.0031680109 4283714050
-0.053089682 -0.067933574 -0.0054015806 4294967162
-0.052305005 -0.068598598 -0.0076385513 4293977953
-0.051828746 -0.06960535 -0.0089876102 4294967156
-0.051041957 -0.070287518 -0.011230387 4287985423
-0.050564174 -0.071306504 -0.012583631 4281275392
-0.050396312 -0.072654963 -0.013044832 4279899911
-0.0010301794 -0.051987272 -0.15467811 4279110656
-0.0011329548 -0.05398092 -0.15435518 4279110656
-0.00092030782 -0.055689134 -0.15493943 4278914048
-0.00070766086 -0.057397347 -0.15552367 4278914048
-0.00081163604 -0.059381191 -0.15519746 4278979842
-0.0012331464 -0.06163333 -0.15395826 4279176449
-0.0010214131 -0.063334197 -0.15454 4279176449
-0.0011272351 -0.065303378 -0.1542087 4279176449
-0.00091580657 -0.067001797 -0.1547896 4279045633
-0.00070437801 -0.068700224 -0.1553705 4279111428
-0.00049294945 -0.070398651 -0.1559514 4279374080
-0.00028152086 -0.072097071 -0.15653229 4279439873
-7.0092705e-05 -0.07379549 -0.15711318 4279309057
0.00046071914 -0.075240299 -0.15861212 4279309057
0.00099212106 -0.076690011 -0.16011268 4279505920
0.0018441041 -0.077895895 -0.16253458 4279440128
0.0023770479 -0.079357825 -0.16403939 4279241984
0.010562635 -0.1479326 -0.18648855 4282860039
0.010442512 -0.14978674 -0.18611796 4282925067
0.0099887103 -0.15177947 -0.18479006 4283251985
0.0098670442 -0.15362138 -0.18441524 4282791434
0.0097447913 -0.15545839 -0.1840388 4282727184
0.0096219284 -0.1572905 -0.1836607 4283055881
0.0094984556 -0.15911773 -0.18328092 4283121415
0.0097089699 -0.1608088 -0.1838593 4283185420
0.0095845824 -0.16262868 -0.183477 4282593283
0.009794794 -0.16431732 -0.18405455 4282000384
0.0096694734 -0.16612986 -0.18366969 4281870848
0.0095435642 -0.1679375 -0.18328321 4281805056
0.009417044 -0.16974024 -0.18289505 4282001920
0.0096263401 -0.17142154 -0.18347009 4282133504
0.0094989073 -0.17321695 -0.18307942 4282660358
0.0097078988 -0.17489579 -0.18365362 4282924036
0.0092421938 -0.17679308 -0.18229301 4283712518
0.0094505772 -0.17846704 -0.18286555 4283844622
0.0093210116 -0.18024532 -0.18246901 4283647243
0.0095290877 -0.18191682 -0.18304069 4283975438
0.0093986085 -0.18368775 -0.18264167 4283909643
0.0092675211 -0.18545379 -0.18224096 4283778827
0.00947499 -0.18712041 -0.18281098 4283713802
0.009682456 -0.188787 -0.18338098 4283648009
0.00955013 -0.19054326 -0.18297687 4283779079
0.0097572925 -0.19220743 -0.18354605 4283975175
0.0096240686 -0.19395632 -0.18313947 4284238601
0.0094902404 -0.19570033 -0.18273124 4284040718
0.0096967947 -0.19735961 -0.18329874 4283843339
0.009903349 -0.19901888 -0.18386625 4283909382
0.0097682979 -0.20075308 -0.18345465 4283975177
0.0096326405 -0.20248242 -0.18304138 4284039946
0.0094963536 -0.20420687 -0.18262638 4284238608
0.0097019933 -0.20585878 -0.18319137 4284238608
0.0095648104 -0.20757587 -0.18277393 4284107022
0.0097701466 -0.20922536 -0.18333808 4284172808
0.0099754827 -0.21087484 -0.18390223 4284501253
0.010180819 -0.21252432 -0.18446639 4284369415
0.010042112 -0.21422917 -0.18404475 4284369415
0.0099027986 -0.21592914 -0.18362145 4284435460
0.010107526 -0.21757372 -0.18418393 4284435460
0.010312252 -0.2192183 -0.18474641 4284238597
0.010516976 -0.22086287 -0.18530889 4284304390
0.010721704 -0.22250746 -0.18587136 4284238608
0.010580541 -0.22419275 -0.18544298 4284369681
0.010438789 -0.22587313 -0.18501297 4284500751
0.010296429 -0.22754861 -0.18458129 4284239110
0.010153459 -0.22921921 -0.18414794 4284173317
0.010009879 -0.23088491 -0.18371291 4284172804
0.0095182769 -0.23257416 -0.18228115 4284042503
0.0093731759 -0.23422764 -0.18184194 4284239112
0.0092274649 -0.23587622 -0.18140106 4284369417
0.0087328171 -0.23754101 -0.17996094 4284172554
0.0082369708 -0.239196 -0.17851752 4284304140
0.008437736 -0.24080877 -0.17906912 4284239362
0.0079400437 -0.24244909 -0.17762062 4284107776
0.0081402007 -0.24405697 -0.17817055 4284369413
0.007990527 -0.24567372 -0.17771877 4284304394
0.007840246 -0.24728559 -0.17726533 4284172808
0.008039793 -0.24888857 -0.17781359 4284173067
0.0082393419 -0.25049156 -0.17836185 4284435206
0.0084388871 -0.25209454 -0.17891009 4284173571
0.0079357307 -0.25369078 -0.17744659 4284238095
0.0081346696 -0.25528887 -0.17799316 4284238095
0.0079816226 -0.2568787 -0.17753212 4284368652
0.008180256 -0.25847435 -0.17807786 4284173321
0.0080263196 -0.26005682 -0.17761438 4284040968
0.0082246475 -0.26165003 -0.17815928 4283843589
0.0080697965 -0.26322517 -0.17769328 4283975175
0.0079143364 -0.26479542 -0.17722562 4283975938
0.0077582439 -0.26636079 -0.1767562 4284171523
0.007955661 -0.26794666 -0.17729861 4284171786
0.0077986745 -0.26950464 -0.17682675 4283777544
0.007641084 -0.27105778 -0.17635322 4283843337
0.0078378879 -0.27263874 -0.17689393 4283646471
0.0076793805 -0.27418453 -0.17641789 4283448064
0.0078758802 -0.27576303 -0.17695777 4282987526
0.0080723809 -0.27734151 -0.17749766 4282526977
0.0082688844 -0.27892005 -0.17803754 4283513872
0.0088219158 -0.28054351 -0.17959753 4283974155
0.0090187192 -0.28212446 -0.18013825 4283974923
0.0092155226 -0.28370538 -0.18067895 4283909130
0.0094123296 -0.28528637 -0.18121968 4283777544
0.009609133 -0.28686729 -0.18176039 4283249920
0.0098059401 -0.28844827 -0.1823011 4282789897
0.0096443854 -0.28996959 -0.1818167 4282462217
0.0098408861 -0.29154807 -0.18235658 4283383051
0.0096784187 -0.29306206 -0.18186966 4283777809
0.0098746149 -0.29463813 -0.18240871 4283974927
0.010070812 -0.29621419 -0.18294775 4284105991
0.0099071031 -0.29771835 -0.18245742 4284040450
0.0097428057 -0.29921761 -0.18196546 4283975425
-0.063891083 0.061310429 0.019209981 4294966895
-0.063999005 0.059377979 0.019554665 4294901605
-0.064107545 0.057450432 0.019901026 4294901623
-0.064216688 0.055527773 0.020249058 4294967161
-0.064607121 0.05306514 0.021418091 4294901633
-0.064717792 0.051154725 0.021770312 4294901631
-0.065110341 0.048709255 0.022945153 4294901639
-0.065222546 0.046811037 0.023301603 4294901637
-0.065335348 0.044917736 0.02365968 4294901637
-0.065448754 0.043029349 0.024019433 4294836090
-0.065562777 0.041145839 0.024380855 4294901618
-0.06539461 0.039794937 0.023918821 4294967161
-0.065509558 0.037918739 0.024282802 4294966640
-0.065341696 0.036570281 0.023821604 4294966640
-0.065173827 0.035221819 0.023360401 4294901597
-0.065289982 0.033355448 0.023727687 4294901611
-0.065122426 0.032009434 0.023267323 4294836081
-0.064954862 0.030663423 0.022806959 4294901627
-0.065072231 0.028806839 0.023177592 4294901627
-0.065475449 0.02644703 0.024381731 4294967172
-0.06559436 0.02460265 0.024756597 4294770563
-0.065999702 0.022259973 0.025966596 4294901627
-0.066120118 0.020427858 0.026345596 4294901618
-0.066241145 0.018600645 0.026726274 4294901616
-0.066362798 0.0167783 0.027108675 4294901616
-0.066772103 0.014467428 0.028329553 4293254228
-0.066895261 0.012657346 0.028716089 4294831475
-0.066731356 0.011340697 0.028265769 4291672399
-0.066855446 0.0095379259 0.028654866 4293449070
-0.066691846 0.0082237273 0.028205384 4292922726
-0.066816837 0.0064283283 0.028596941 4293120105
-0.066653542 0.0051165731 0.028148295 4290294356
-0.066490248 0.0038048248 0.027699649 4288517445
-0.066326953 0.0024930765 0.027251005 4293120625
-0.066453464 0.00070991524 0.02764675 4292331109
-0.066290475 -0.00059939659 0.027198939 4290161223
-0.066127487 -0.0019086944 0.026751133 4290028869
-0.065964498 -0.0032179991 0.026303325 4288970762
-0.066092528 -0.0049889293 0.026703252 4289628160
-0.065929845 -0.0062957834 0.02625628 4289628160
-0.065767162 -0.0076026381 0.02580931 4288904704
-0.065604478 -0.0089094928 0.025362339 4288376576
-0.065441795 -0.01021635 0.024915367 4287125248
-0.065279111 -0.011523208 0.024468396 4289625371
-0.065116428 -0.012830063 0.024021426 4290417162
-0.064953737 -0.014136921 0.023574453 4291405574
-0.064791054 -0.015443775 0.023127483 4291536896
-0.06462837 -0.016750632 0.022680512 4291076096
-0.064465687 -0.018057486 0.02223354 4290549760
-0.064303003 -0.019364344 0.021786569 4290746112
-0.064434998 -0.021103458 0.022197379 4291206145
-0.06427262 -0.022407861 0.021751245 4290878465
-0.064110234 -0.023712272 0.021305112 4289829149
-0.063947856 -0.02501668 0.020858977 4290750251
-0.063785478 -0.026321091 0.020412844 4286543641
-0.063623101 -0.027625497 0.019966708 4288715074
-0.063164212 -0.028512333 0.018657774 4289174060
-0.063001528 -0.029819191 0.018210802 4289173799
-0.062838845 -0.031126045 0.017763831 4289173799
-0.062676162 -0.032432899 0.017316861 4288845093
-0.062513478 -0.033739757 0.01686989 4288714531
-0.062350795 -0.035046611 0.016422918 4288647716
-0.061889775 -0.035950579 0.015108122 4288515376
-0.061726786 -0.03725988 0.014660315 4288383790
-0.061862741 -0.038967181 0.015082004 4288055849
-0.061400808 -0.039878488 0.013764699 4288252456
-0.061237819 -0.041187789 0.013316891 4288186148
-0.060774975 -0.042106438 0.011997073 4288186148
-0.060311522 -0.043029983 0.010675582 4287990054
-0.060147922 -0.044344179 0.0102261 4287661600
-0.059683539 -0.045275044 0.008902045 4287924526
-0.059218559 -0.046210822 0.0075763692 4282462729
-0.058752973 -0.047151495 0.0062490189 4280160000
-0.058286775 -0.048097067 0.0049199942 4280095232
-0.058121961 -0.04942105 0.0044671646 4279635969
-0.057957143 -0.050745036 0.0040143342 4279438080
-0.057792328 -0.052069027 0.003561504 4279176449
-0.05762751 -0.05339301 0.003108674 4279110656
-0.057462692 -0.054716997 0.0026558437 4278979842
-0.057601389 -0.056402273 0.0030850666 4279044864
-0.057436876 -0.057723813 0.0026330734 4279176192
