# .PCD v0.7 - Point Cloud Data file format
VERSION 0.7
FIELDS x y z rgb
SIZE 4 4 4 4
TYPE F F F U
COUNT 1 1 1 1
WIDTH 1003
HEIGHT 1
VIEWPOINT 0 0 0 1 0 0 0
POINTS 1003
DATA ascii
-0.13995869 -0.075638011 -0.025844928 4285774025
-0.14150104 -0.07514786 -0.02528359 4288338673
-0.14304878 -0.07534083 -0.025476566 4288338673
-0.1445965 -0.075533807 -0.025669537 4288337663
-0.14614423 -0.075726777 -0.025862511 4283403192
-0.14769197 -0.075919755 -0.026055487 4278735266
-0.14923969 -0.076112725 -0.026248459 4278342050
-0.15078741 -0.076305702 -0.026441434 4279261324
-0.15233515 -0.07649868 -0.026634408 4280440681
-0.15391123 -0.07737764 -0.027584556 4280111716
-0.071851082 0.020401949 0.077474572 4290051578
-0.072811916 0.018920965 0.075843886 4290510847
-0.073912948 0.018103104 0.074951179 4291035135
-0.077613704 0.017641688 0.074489765 4284450697
-0.078847297 0.017487882 0.074335955 4282674286
-0.079963654 0.016668089 0.073441312 4278789417
-0.11197239 -0.072396658 -0.024979526 4278210734
-0.11352778 -0.07259059 -0.025173454 4278211248
-0.11504768 -0.073460676 -0.026118388 4278409908
-0.11657269 -0.074331395 -0.027063958 4278475701
-0.11813318 -0.074525967 -0.027258525 4278542005
-0.11966584 -0.075397685 -0.028205095 4278935459
-0.12122889 -0.075592563 -0.028399978 4287420149
-0.12279195 -0.075787447 -0.028594865 4287814907
-0.12433483 -0.076660402 -0.029542664 4285642957
-0.12590043 -0.076855607 -0.029737866 4284591298
-0.12746604 -0.077050805 -0.029933069 4284066239
-0.12904416 -0.076566987 -0.029374402 4284263620
-0.13060722 -0.076761872 -0.029569287 4283868862
-0.13217767 -0.076277062 -0.02900962 4285053134
-0.133743 -0.07579165 -0.028449358 4284986056
-0.13530324 -0.075305596 -0.027888464 4283603633
-0.13685837 -0.074818909 -0.02732693 4286103504
-0.13840841 -0.074331589 -0.026764762 4287024606
-0.13995332 -0.073843591 -0.026201909 4287221471
-0.14150104 -0.074036568 -0.026394883 4288272878
-0.14304878 -0.074229538 -0.026587857 4287810028
-0.1445965 -0.074422516 -0.026780831 4280441505
-0.14614423 -0.074615486 -0.026973804 4280638884
-0.14769197 -0.074808463 -0.02716678 4279192469
-0.14923969 -0.075001433 -0.027359752 4279390073
-0.15081067 -0.075877927 -0.0283111 4280376433
-0.15236095 -0.076071225 -0.028504392 4280571488
-0.076505005 0.019344404 0.074499525 4282607459
-0.077736035 0.019190917 0.074346036 4282083182
-0.078967072 0.019037429 0.074192554 4281227873
-0.080198102 0.018883942 0.074039064 4279450177
-0.11050332 -0.069739208 -0.024398623 4278210475
-0.112013 -0.07060618 -0.025344118 4278210734
-0.11352778 -0.071473792 -0.026290249 4278211248
-0.11508317 -0.071667723 -0.026484178 4278475701
-0.11660562 -0.072536297 -0.027431263 4278541494
-0.11813318 -0.073405504 -0.028378986 4279199926
-0.11969368 -0.073600069 -0.028573552 4284723933
-0.12125417 -0.073794633 -0.028768117 4287813612
-0.12279195 -0.074665159 -0.029717159 4285379271
-0.124355 -0.074860044 -0.029912043 4285839820
-0.12591806 -0.075054929 -0.030106926 4284788677
-0.1274811 -0.075249813 -0.030301811 4284395204
-0.12904416 -0.075444691 -0.030496696 4284066239
-0.13061717 -0.074962035 -0.029935515 4284592583
-0.13219246 -0.073800944 -0.028617399 4284395206
-0.13374786 -0.073994875 -0.028811328 4285381329
-0.13530555 -0.073510341 -0.02824828 4284986310
-0.13685812 -0.073025174 -0.027684594 4286760922
-0.13840559 -0.07253933 -0.027120227 4286958301
-0.13995332 -0.0727323 -0.027313201 4287878120
-0.14149311 -0.072245538 -0.026747923 4286957020
-0.14304878 -0.073118247 -0.027699148 4283006901
-0.1445965 -0.073311225 -0.027892122 4280441251
-0.14614423 -0.073504195 -0.028085096 4279520149
-0.14769197 -0.073697172 -0.02827807 4278993791
-0.14926039 -0.074571513 -0.029230932 4280902265
-0.15081067 -0.074764803 -0.029424226 4280639597
-0.15238674 -0.07564006 -0.030377999 4280637019
-0.074302934 0.02185671 0.075408407 4291035133
-0.077980705 0.021398159 0.074949853 4280767329
-0.080315322 0.020430138 0.073899649 4279450692
-0.10754755 -0.066226766 -0.022865882 4278210731
-0.10909017 -0.066419102 -0.023058221 4278210988
-0.11054648 -0.067954503 -0.024757991 4278210988
-0.11209421 -0.06814748 -0.024950964 4278210731
-0.11360388 -0.069012664 -0.025898336 4278211502
-0.11511867 -0.069878444 -0.026846299 4278473886
-0.11663857 -0.070744857 -0.027794901 4281500364
-0.11819395 -0.070938788 -0.027988831 4287485942
-0.11972151 -0.071806163 -0.028938387 4287089889
-0.12127946 -0.072000414 -0.029132633 4286168785
-0.1228374 -0.072194658 -0.02932688 4284918718
-0.12439535 -0.07238891 -0.029521128 4284723138
-0.12593567 -0.073257871 -0.030472277 4285776855
-0.12751123 -0.072777405 -0.029909624 4285382097
-0.12906918 -0.072971649 -0.030103872 4284723397
-0.13063708 -0.072490223 -0.029540263 4284591811
-0.13219246 -0.072684154 -0.029734192 4284394434
-0.1337527 -0.072201774 -0.029169628 4285972435
-0.13530783 -0.071718752 -0.028604427 4286629336
-0.13685785 -0.071235061 -0.028038546 4288207085
-0.13840559 -0.071428031 -0.02823152 4288667636
-0.13995332 -0.071621008 -0.028424496 4285311171
-0.14149311 -0.07113608 -0.02785738 4281494693
-0.14304878 -0.072006956 -0.028810441 4281361835
-0.1445965 -0.072199926 -0.029003415 4278202728
-0.14615981 -0.0730718 -0.029957475 4279387002
-0.1477101 -0.073265091 -0.030150767 4281559164
-0.14926039 -0.073458388 -0.03034406 4281164656
-0.15083392 -0.074331492 -0.031299345 4280572519
-0.15238674 -0.074525103 -0.031492956 4280440933
0.091296524 0.030557523 0.080717571 4286660670
0.090476424 0.02978019 0.079854392 4287858578
0.08965122 0.029002182 0.078990526 4288319129
0.089270145 0.027604507 0.077421151 4287209639
-0.073342107 0.024206921 0.076169856 4291559423
-0.074562922 0.024054708 0.076017641 4290310896
-0.075783737 0.023902494 0.075865425 4284254599
-0.076879665 0.02309075 0.074967831 4281292631
-0.10615738 -0.062920526 -0.021517342 4278212785
-0.10764408 -0.063781016 -0.022463681 4278211758
-0.10913588 -0.064642094 -0.023410615 4278211501
-0.11063279 -0.065503813 -0.024358181 4278211245
-0.11213481 -0.066366166 -0.025306389 4278211245
-0.11364193 -0.067229159 -0.026255229 4278211238
-0.11515416 -0.068092823 -0.027204756 4283473868
-0.1166715 -0.06895709 -0.02815487 4286697725
-0.11822434 -0.069150701 -0.028348481 4286497750
-0.11977718 -0.069344319 -0.028542092 4285774541
-0.12133002 -0.069537923 -0.028735703 4285906127
-0.12286013 -0.070403785 -0.029687412 4286037713
-0.12441552 -0.070597716 -0.029881341 4284656573
-0.1259709 -0.070791639 -0.030075271 4284066237
-0.1275263 -0.070985571 -0.0302692 4284329409
-0.12909418 -0.070505977 -0.029703755 4284921030
-0.13064703 -0.070699587 -0.029897366 4284921030
-0.13220727 -0.07021904 -0.029330971 4285118409
-0.1337624 -0.069737822 -0.02876389 4286695643
-0.13531013 -0.069930792 -0.028956864 4287483360
-0.1368576 -0.06944865 -0.028388875 4288930036
-0.13840559 -0.070316739 -0.029342812 4288008934
-0.13994795 -0.069833964 -0.028774187 4281231253
-0.14150104 -0.070702687 -0.029728759 4280903337
-0.14304878 -0.070895664 -0.029921733 4279256709
-0.1445965 -0.071088634 -0.030114707 4280045425
-0.1461754 -0.072635695 -0.031833474 4282545559
-0.14772823 -0.072829306 -0.032027084 4281164656
-0.14928107 -0.073022917 -0.032220695 4280901484
-0.15085717 -0.073894508 -0.033178139 4280506724
-0.15241255 -0.074088439 -0.033372067 4280440931
-0.15399629 -0.074960984 -0.034330461 4279252796
0.092459373 0.033637345 0.082235806 4286922043
0.092111513 0.032247458 0.080666877 4286856250
0.091296524 0.031472594 0.079802498 4286663502
0.090476424 0.030697098 0.078937478 4285884524
0.08965122 0.029920924 0.078071781 4286016110
0.089270145 0.028526917 0.076498739 4285035638
0.088878855 0.027131636 0.074924424 4284708472
0.088033244 0.026352918 0.074056178 4284838777
0.086299308 0.026810013 0.074602805 4284378226
0.085009545 0.026649201 0.074441992 4284968564
0.083283305 0.02710722 0.074989527 4285100152
0.081562161 0.02756587 0.075537696 4284969595
0.079846136 0.028025158 0.076086499 4284969595
0.063323259 0.030004594 0.078603052 4286483350
0.062056478 0.02984665 0.078445107 4287339942
0.018786576 0.037916787 0.08830563 4291096805
0.016033616 0.038246788 0.08872515 4291492081
-0.072256386 0.025892101 0.076191425 4290904062
-0.073474653 0.025740206 0.07603953 4292214783
-0.074692912 0.025588311 0.075887635 4288204237
-0.075911172 0.025436414 0.07573574 4283266675
-0.077129439 0.025284519 0.075583845 4281753182
-0.10472918 -0.060293838 -0.020915862 4278213294
-0.10615738 -0.061818406 -0.022619464 4278212269
-0.10764408 -0.062677056 -0.023567639 4278211242
-0.10918159 -0.062868759 -0.023759339 4278211499
-0.11067595 -0.063728318 -0.024708424 4278211500
-0.11221601 -0.063920341 -0.024900442 4279857602
-0.11367998 -0.065449364 -0.026608501 4285513960
-0.11522515 -0.065642022 -0.026801156 4287616747
-0.11673739 -0.066503815 -0.02775247 4286958817
-0.11828511 -0.066696785 -0.027945444 4285444544
-0.11983285 -0.066889763 -0.02813842 4285708232
-0.12135529 -0.067752868 -0.029091049 4284261813
-0.12290557 -0.067946166 -0.029284341 4285118407
-0.12445586 -0.068139456 -0.029477635 4285578958
-0.12600614 -0.068332747 -0.029670926 4284723649
-0.12754136 -0.069197409 -0.030625107 4285117894
-0.1291067 -0.068719335 -0.03005751 4284919745
-0.13066694 -0.068240575 -0.029489236 4286104019
-0.13221468 -0.068433553 -0.02968221 4286498262
-0.1337624 -0.068626523 -0.029875183 4288470255
-0.13531242 -0.068146542 -0.029305678 4288994804
-0.1368576 -0.068339199 -0.029498333 4282480041
-0.13840277 -0.068531848 -0.029690988 4280769423
-0.13994795 -0.068724506 -0.029883644 4279849881
-0.14150104 -0.069591396 -0.030840052 4278862975
-0.14304878 -0.069784373 -0.031033028 4281559943
-0.14462256 -0.071327128 -0.032754827 4281757304
-0.1461754 -0.071520738 -0.032948434 4281362546
-0.14774638 -0.072389856 -0.033907074 4280901482
-0.14930177 -0.072583787 -0.034101002 4280704105
-0.15088041 -0.073453858 -0.035060592 4280506724
-0.15246415 -0.074324571 -0.036020823 4280638310
-0.154053 -0.075195961 -0.036981735 4278856754
0.092459373 0.034546915 0.081326231 4286856250
0.092111513 0.033160698 0.079753637 4290082678
0.08965122 0.030839665 0.077153042 4286015591
0.089270145 0.029449325 0.075576335 4284838259
0.088878855 0.028057713 0.073998347 4284445302
0.088033244 0.027280828 0.073128268 4282927698
0.086299308 0.02773609 0.073676728 4281875010
0.085009545 0.027575279 0.073515914 4283253581
0.08371976 0.027414467 0.073355101 4284372834
0.081562161 0.028488277 0.074615285 4283385421
0.080277488 0.028328102 0.074455112 4282266425
0.078564033 0.028785879 0.075006068 4282134839
0.077281892 0.028626021 0.074846208 4282923073
0.075999789 0.028466165 0.074686356 4282661444
0.073016979 0.028765675 0.075079054 4283516492
0.071321361 0.029225713 0.075632282 4283845457
0.070044361 0.029066494 0.075473063 4284306521
0.068356425 0.029527452 0.076027207 4284438879
0.066673599 0.029989047 0.076581992 4284768103
0.065401703 0.029830463 0.076423407 4284900461
0.063726522 0.030293033 0.07697916 4284834668
0.062457185 0.030134769 0.076820903 4284834927
0.060789686 0.030598275 0.077377588 4284900720
0.020989913 0.037050121 0.085413612 4291297276
0.019439878 0.037528295 0.085984968 4291362813
0.017894976 0.038007084 0.086556949 4291362813
0.013607311 0.038815334 0.087551571 4291619556
0.012394154 0.038664076 0.087400317 4290237129
-0.063422598 0.026525401 0.074888892 4288801771
-0.064645968 0.026372869 0.074736357 4289591541
-0.065869339 0.026220337 0.074583828 4290052092
-0.067238025 0.026721118 0.075177796 4290445310
-0.069679655 0.026416691 0.074873365 4290379773
-0.072121292 0.026112264 0.074568942 4290969598
-0.073474653 0.026614936 0.075164802 4291887103
-0.074692912 0.026463041 0.075012907 4287216829
-0.075911172 0.026311146 0.074861005 4282476389
-0.077129439 0.026159249 0.07470911 4283134837
-0.078347698 0.026007354 0.074557215 4279779925
-0.079565957 0.025855459 0.07440532 4279648339
-0.10319933 -0.059004638 -0.021823572 4278211493
-0.10467581 -0.059860144 -0.022772262 4278212267
-0.10615738 -0.060716283 -0.023721587 4278211499
-0.10764408 -0.061573099 -0.024671594 4278210472
-0.10918159 -0.061764799 -0.024863293 4278210986
-0.1107191 -0.061956499 -0.025054993 4278210988
-0.11221601 -0.062814549 -0.026006231 4285252863
-0.11375608 -0.063006565 -0.026198247 4288014079
-0.11526065 -0.063865572 -0.027150441 4288668917
-0.11677033 -0.06472522 -0.02810327 4286826713
-0.1183155 -0.06491787 -0.028295925 4286825684
-0.11986068 -0.065110527 -0.028488582 4285576900
-0.12140585 -0.065303184 -0.028681235 4285972431
-0.12295102 -0.065495841 -0.028873893 4284920513
-0.12449621 -0.065688498 -0.029066548 4285446857
-0.12604137 -0.065881148 -0.029259203 4285710031
-0.12757149 -0.066743337 -0.03021458 4286761949
-0.12911922 -0.066936314 -0.030407554 4286826967
-0.13066694 -0.067129284 -0.030600527 4286958553
-0.13222207 -0.066651769 -0.030029824 4288339436
-0.13376725 -0.066844426 -0.030222479 4284455862
-0.13531242 -0.067037083 -0.030415135 4281230240
-0.1368576 -0.06722974 -0.030607792 4280703907
-0.13840277 -0.06742239 -0.030800447 4278401152
-0.13994795 -0.067615047 -0.030993102 4279585667
-0.14150104 -0.068480104 -0.031951346 4282283916
-0.14305925 -0.069345839 -0.032910269 4281429111
-0.14462256 -0.07021217 -0.033869784 4280968560
-0.14619099 -0.071079135 -0.034829937 4280902767
-0.14774638 -0.071273066 -0.035023864 4280639595
-0.14932245 -0.072140984 -0.035984974 4280638825
-0.15090366 -0.073009543 -0.036946718 4280507237
-0.15248996 -0.07387878 -0.037909146 4280507237
0.092459373 0.03545649 0.080416657 4286923329
0.091652043 0.034686249 0.079549566 4286666069
0.08965122 0.031758405 0.076234303 4286078043
0.089270145 0.030371735 0.074653924 4284836715
0.088878855 0.028983789 0.07307227 4284115824
0.088033244 0.028208738 0.072200358 4282530628
0.086740911 0.028047606 0.072039232 4282399042
0.085009545 0.028501356 0.072589837 4282991179
0.08371976 0.028340543 0.072429024 4283125077
0.081996061 0.028795209 0.072980545 4283056456
0.080708854 0.028634716 0.072820053 4282987579
0.078992829 0.029090337 0.073372528 4282592821
0.077708155 0.028930161 0.073212348 4283184445
0.075999789 0.029386738 0.073765785 4283317567
0.074717686 0.029226882 0.073605925 4283186746
0.073435567 0.029067026 0.073446073 4283186241
0.071737416 0.029524878 0.074000776 4282988862
0.070457868 0.02936534 0.073841237 4283186241
0.068767354 0.029824182 0.074396938 4282792253
0.067081973 0.030283626 0.074953236 4282858048
0.065807521 0.030124724 0.07479433 4282858050
0.064129807 0.030585121 0.075351581 4283055429
0.062857918 0.030426539 0.075193003 4283449163
0.061586015 0.030267958 0.075034417 4283778128
0.059918508 0.03072965 0.075592965 4284370519
0.058649164 0.030571384 0.0754347 4284765793
0.057379816 0.030413119 0.075276434 4285028965
0.056110475 0.030254856 0.075118169 4285029481
0.054841138 0.030096592 0.074959904 4284898408
0.053571798 0.029938329 0.074801646 4284766820
0.051922172 0.030402228 0.075362399 4284632404
0.050655376 0.030244283 0.075204454 4284566611
0.049388599 0.030086339 0.07504651 4284829009
0.047749184 0.030551512 0.075608537 4285225574
0.046855014 0.029770445 0.074730612 4285031277
0.045588236 0.029612502 0.074572667 4283979361
0.032809012 0.030697519 0.076045103 4288982968
0.024773896 0.035721976 0.081941254 4291424501
0.022876801 0.036824599 0.083237588 4291623678
0.020093188 0.037147131 0.083656974 4291952639
0.015777435 0.037948214 0.084651768 4291887103
0.014556617 0.037796002 0.084499553 4292083711
0.013335801 0.037643787 0.084347337 4292345855
0.012426321 0.03686079 0.083467491 4291756028
-0.055029869 0.029119818 0.075823367 4289197042
-0.056250688 0.028967604 0.075671159 4289065456
-0.063269623 0.02675329 0.073263139 4289460214
-0.064495541 0.026600439 0.073110282 4289920765
-0.065721467 0.026447589 0.072957434 4289592054
-0.070900477 0.02714104 0.073844589 4290117369
-0.073474653 0.027489664 0.074290067 4290046182
-0.074692912 0.027337769 0.074138172 4286295981
-0.075783737 0.026532184 0.073235735 4281161297
-0.077129439 0.027033979 0.073834382 4285109910
-0.078347698 0.026882084 0.073682487 4279516499
-0.079565957 0.026730189 0.073530592 4278398018
-0.10319933 -0.057906184 -0.022922028 4278213263
-0.10467581 -0.058759853 -0.023872551 4278211996
-0.10615738 -0.059614159 -0.024823708 4278210725
-0.10769235 -0.059805542 -0.025015092 4278209958
-0.10922731 -0.059996922 -0.025206473 4278210729
-0.11076226 -0.060188305 -0.025397854 4278409138
-0.11225662 -0.061044242 -0.026350651 4279133109
-0.11379413 -0.061235942 -0.026542351 4281434812
-0.11529615 -0.062092796 -0.027496058 4288537849
-0.11683621 -0.062284816 -0.027688077 4288472056
-0.11837627 -0.062476832 -0.027880095 4288668401
-0.11991635 -0.062668853 -0.028072115 4286957268
-0.12145641 -0.062860869 -0.028264133 4286760404
-0.12299648 -0.063052893 -0.028456151 4285642953
-0.12453654 -0.063244909 -0.02864817 4285840332
-0.12607661 -0.063436925 -0.028840188 4286169297
-0.12760162 -0.064296648 -0.029796762 4286695381
-0.12914424 -0.064488985 -0.029989099 4287221725
-0.13068686 -0.064681321 -0.030181436 4287419104
-0.13222948 -0.064873658 -0.030373773 4287812579
-0.1337721 -0.065065995 -0.030566109 4281164947
-0.13531472 -0.065258332 -0.030758446 4281362089
-0.1368576 -0.066120282 -0.031717248 4279190403
-0.13840277 -0.066312931 -0.031909905 4278400887
-0.13994795 -0.066505589 -0.032102559 4282810014
-0.14150104 -0.067368813 -0.033062637 4281758076
-0.14305925 -0.068232715 -0.034023393 4281231732
-0.14462256 -0.069097206 -0.034984745 4280902767
-0.14619099 -0.069962345 -0.035946731 4280836974
-0.14774638 -0.070156269 -0.036140658 4280639595
-0.14934315 -0.071694516 -0.037872612 4280508009
-0.15090366 -0.071889088 -0.038067181 4280573030
-0.15248996 -0.072756484 -0.039031442 4280441444
0.092459373 0.036366064 0.079507083 4289493369
0.091652043 0.035597656 0.078638159 4287193955
0.089270145 0.031294145 0.073731512 4285163111
0.088878855 0.02990987 0.072146192 4284180593
0.088033244 0.02913665 0.071272448 4282402126
0.086740911 0.02897552 0.071111314 4281678403
0.085448593 0.02881439 0.070950188 4284965482
0.08371976 0.029266622 0.071502946 4283851880
0.082429983 0.02910581 0.071342133 4283847005
0.081140213 0.028944999 0.07118132 4283118905
0.07985045 0.028784189 0.071020514 4282592561
0.07813441 0.029237976 0.071574822 4283841344
0.076423496 0.029692398 0.072129764 4283579192
0.075138837 0.029532224 0.071969591 4283579444
0.073435567 0.029987603 0.072525494 4283449151
0.072153457 0.029827747 0.072365634 4283383358
0.070871353 0.029667892 0.072205782 4283184950
0.069178306 0.030124545 0.072762951 4283054647
0.067490354 0.030581873 0.073320806 4283318850
0.066213347 0.030422654 0.073161587 4282989885
0.06453307 0.030880898 0.073720351 4283055678
0.063258626 0.030721998 0.073561452 4284041037
0.061586015 0.031181199 0.074121177 4283183412
0.060314123 0.031022618 0.073962592 4284105286
0.059042223 0.030864036 0.073804013 4283512896
0.057770323 0.030705452 0.073645428 4282723380
0.056498431 0.03054687 0.073486842 4283381563
0.055226538 0.030388288 0.073328264 4282921012
0.053571798 0.030849736 0.073890239 4283117108
0.051922172 0.031311803 0.074452825 4283777097
0.050655376 0.031153856 0.07429488 4284500820
0.049388599 0.030995913 0.074136935 4284634461
0.048121806 0.030837966 0.07397899 4284569443
0.046855014 0.030680019 0.073821038 4284177763
0.045588236 0.030522075 0.073663093 4284045402
0.044686403 0.029741887 0.07278239 4283190093
0.043779477 0.028961046 0.071901023 4283248946
0.042507578 0.028802462 0.071742438 4284164136
0.041235678 0.02864388 0.071583852 4284360484
0.039963786 0.028485296 0.071425274 4284294691
0.038691893 0.028326714 0.071266688 4284295722
0.037070353 0.028792303 0.071832806 4285022801
0.035106849 0.029882981 0.07312452 4284893016
0.027018104 0.034884248 0.079030484 4284377712
0.02510822 0.035981629 0.080328919 4284310123
0.023540312 0.036453906 0.080901712 4284833387
0.020419845 0.037400331 0.082049184 4285029742
0.018867265 0.037874516 0.082623892 4284504683
0.017641341 0.037721664 0.082471043 4283781728
0.016415417 0.037568815 0.082318194 4284306523
0.015189493 0.037415963 0.082165338 4285555559
0.01396357 0.037263114 0.082012489 4286081903
0.013048983 0.036481317 0.081130169 4286937726
0.011820499 0.036328148 0.080977 4287466638
-0.051188901 0.029807519 0.074657418 4289262583
-0.055029869 0.029996382 0.074946806 4289854974
-0.056082379 0.029197389 0.07404729 4289460216
-0.063269623 0.027633524 0.072382897 4289394421
-0.064495541 0.027480673 0.072230048 4289591800
-0.065721467 0.027327823 0.0720772 4290052093
-0.067092709 0.027824599 0.072674498 4290248703
-0.070762813 0.027367003 0.072216898 4290313978
-0.072121292 0.027865391 0.072815813 4290969598
-0.073342107 0.027713176 0.072663598 4288993494
-0.074562922 0.027560964 0.072511382 4285901223
-0.075783737 0.027408749 0.072359174 4282147422
-0.077004552 0.027256535 0.072206959 4284583827
-0.078225367 0.027104322 0.072054744 4279187534
-0.10319933 -0.056807727 -0.024020484 4278208372
-0.10472918 -0.056998473 -0.02421123 4278208123
-0.10620821 -0.057850625 -0.025163904 4278206852
-0.10769235 -0.058703415 -0.026117219 4278472094
-0.10922731 -0.058894798 -0.0263086 4278603680
-0.11076226 -0.059086177 -0.026499981 4278474926
-0.11229722 -0.059277561 -0.026691364 4278870711
-0.11383218 -0.05946894 -0.026882745 4279198902
-0.11536714 -0.059660323 -0.027074127 4279589539
-0.11686916 -0.060515385 -0.028029712 4281826501
-0.11843705 -0.060043085 -0.027456889 4288536831
-0.11994418 -0.060898785 -0.028413113 4288668401
-0.12150697 -0.060425848 -0.027839653 4288667886
-0.12304193 -0.060617231 -0.028031034 4286891477
-0.12457689 -0.060808614 -0.028222417 4286628305
-0.12609424 -0.061665583 -0.029179914 4286826197
-0.12763174 -0.061857283 -0.029371614 4286957529
-0.12915674 -0.062715173 -0.030330019 4288930038
-0.13069682 -0.062907189 -0.030522039 4286100939
-0.13223688 -0.063099205 -0.030714057 4280770452
-0.1337721 -0.063958369 -0.031673737 4279191436
-0.13531472 -0.064150706 -0.031866074 4278992762
-0.13685733 -0.064343043 -0.03205841 4280968320
-0.13840277 -0.065203473 -0.033019364 4282415766
-0.13994795 -0.06539613 -0.033212021 4281166453
-0.14150104 -0.066257522 -0.034173928 4280969074
-0.14305925 -0.067119583 -0.035136525 4280771695
-0.14462256 -0.067982249 -0.036099706 4280705902
-0.14619099 -0.068845548 -0.037063528 4280640109
-0.14776452 -0.06970948 -0.038027983 4280508523
-0.14934315 -0.070574053 -0.038993075 4280376937
-0.1509269 -0.071439303 -0.039958853 4280442214
-0.15251575 -0.07230515 -0.04092522 4280113249
0.092459373 0.037275635 0.078597516 4288047470
0.091652043 0.036509063 0.077726752 4289431435
0.090103015 0.032986309 0.073683046 4286208857
0.089719385 0.031606656 0.072095014 4285622383
0.08932557 0.03022569 0.070505664 4284311665
0.088477381 0.029454025 0.069629811 4283916907
0.087182492 0.029292574 0.069468364 4282930012
0.085887603 0.029131126 0.069306917 4283913823
0.08415626 0.029581171 0.069861144 4283783005
0.082863927 0.029420039 0.069700018 4284766309
0.081571601 0.029258911 0.069538891 4283448130
0.07985045 0.029710267 0.070094436 4282395442
0.078560665 0.029549453 0.069933623 4284433481
0.076847196 0.030001724 0.070490085 4283579706
0.075559981 0.029841231 0.070329592 4283645237
0.074272759 0.029680738 0.070169099 4284105800
0.072569489 0.030134283 0.070726834 4284368972
0.071284831 0.02997411 0.070566662 4283380532
0.069589235 0.030428611 0.071125351 4283448381
0.06789875 0.030883748 0.071684673 4283450436
0.066213347 0.03133956 0.072244681 4283186492
0.06493634 0.031180341 0.072085463 4283252285
0.063258626 0.031637073 0.072646379 4283843909
0.06198417 0.03147817 0.072487481 4282592813
0.060314123 0.031935856 0.073049359 4284896597
0.059042223 0.031777274 0.072890773 4285818733
0.057770323 0.031618688 0.072732188 4285226596
0.056498431 0.031460106 0.07257361 4286410351
0.055226538 0.031301524 0.072415024 4284302147
0.053954646 0.031142944 0.072256446 4283114280
0.052682746 0.030984361 0.07209786 4282786858
0.051033106 0.031444613 0.072662301 4283313202
0.049763773 0.031286351 0.072504036 4284764762
0.048494428 0.031128086 0.072345771 4283912794
0.04722508 0.030969821 0.072187506 4282404170
0.045955744 0.030811558 0.072029248 4282469963
0.04505137 0.030032866 0.071146362 4282601285
0.043779477 0.029874284 0.070987783 4283120951
0.042507578 0.0297157 0.070829198 4283969067
0.041235678 0.029557116 0.07067062 4284228898
0.039963786 0.029398534 0.070512034 4284228898
0.038691893 0.029239953 0.070353456 4284360484
0.037070353 0.02970371 0.070921399 4284890952
0.035106849 0.030790718 0.072216786 4284105812
0.032809012 0.032501992 0.074240632 4285298562
0.030868489 0.033591889 0.075538903 4285435025
0.028938191 0.034683038 0.076838434 4285369232
0.027018104 0.035775479 0.078139253 4284781206
0.025442526 0.036244966 0.078712933 4284781206
0.023872076 0.036715072 0.079287224 4284974992
0.022306727 0.037185829 0.079862177 4283783273
0.020746492 0.037657209 0.080437742 4283651687
0.019191369 0.038129225 0.081013948 4283648091
0.017962892 0.037976056 0.080860779 4283975248
0.016734408 0.037822887 0.08070761 4284695622
0.015505938 0.037669718 0.080554441 4285285445
0.014277454 0.037516549 0.080401272 4285417031
0.013360308 0.036736287 0.079516821 4285482824
0.01212927 0.036582798 0.079363331 4285482826
0.011204458 0.035801578 0.078477927 4284959564
0.010274543 0.035019703 0.077591859 4284827978
0.0096406257 0.03360882 0.075972594 4285890951
-0.04874216 0.030990981 0.074084081 4290050808
-0.049965531 0.030838449 0.073931552 4288734948
-0.051188901 0.030685917 0.073779017 4290379775
-0.052588239 0.031177375 0.074374668 4288012005
-0.055029869 0.030872948 0.074070238 4290051839
-0.056082379 0.030075788 0.073168889 4289788668
-0.05730575 0.029923256 0.073016353 4289656828
-0.05852912 0.029770723 0.072863825 4290117631
-0.059752487 0.029618191 0.072711289 4290248703
-0.060817771 0.028819457 0.071808368 4289591800
-0.062043697 0.028666606 0.071655519 4289460214
-0.063269623 0.028513756 0.071502671 4289591802
-0.064495541 0.028360905 0.071349822 4289789179
-0.065869339 0.028855531 0.071948633 4289526007
-0.067092709 0.028702999 0.071796097 4290183167
-0.06845884 0.029198596 0.072395891 4289986556
-0.069539443 0.028397935 0.071491033 4290052093
-0.070762813 0.028245403 0.071338505 4290641919
-0.072121292 0.028741956 0.071939245 4291166207
-0.073342107 0.028589742 0.071787037 4287544762
-0.074562922 0.028437529 0.071634822 4285636765
-0.075656295 0.027635273 0.070728377 4284582533
-0.076879665 0.027482741 0.070575841 4283334278
-0.078103036 0.027330209 0.070423312 4279121995
-0.079326406 0.027177677 0.070270777 4278398272
-0.10319933 -0.055709273 -0.02511894 4278202970
-0.10472918 -0.055900019 -0.025309684 4278598256
-0.10620821 -0.056750335 -0.026264194 4278600062
-0.10769235 -0.057601292 -0.02721934 4278600844
-0.10922731 -0.057792675 -0.027410721 4279061395
-0.11076226 -0.057984054 -0.027602103 4278539429
-0.11233782 -0.057514589 -0.027028447 4278607539
-0.11387022 -0.057705652 -0.02721951 4278804916
-0.11540264 -0.057896715 -0.027410574 4279394738
-0.11693504 -0.058087777 -0.027601639 4278868394
-0.11849783 -0.057616718 -0.027026387 4284655589
-0.11999985 -0.058469903 -0.027983764 4288406009
-0.12155753 -0.05799821 -0.027407877 4288733940
-0.12308738 -0.058188956 -0.027598623 4287549407
-0.12459706 -0.059043095 -0.028556954 4287286235
-0.12611184 -0.059897874 -0.02951592 4287089115
-0.1276468 -0.060089257 -0.029707301 4288536048
-0.12916926 -0.06094503 -0.030667268 4285047499
-0.13069682 -0.061801396 -0.03162783 4281099919
-0.13223688 -0.061993416 -0.031819846 4280310430
-0.13377693 -0.062185433 -0.032011867 4278532988
-0.13531701 -0.062377453 -0.032203887 4278467684
-0.13685733 -0.063235417 -0.033166036 4281955717
-0.13840277 -0.064094014 -0.034128822 4281495166
-0.13994795 -0.064286672 -0.034321479 4280969074
-0.14150104 -0.06514623 -0.03528522 4280771695
-0.14306973 -0.066673674 -0.037021056 4280705902
-0.14462256 -0.066867292 -0.037214667 4280640109
-0.14619099 -0.06772875 -0.038180318 4280574316
-0.14778265 -0.069259025 -0.03991897 4280508523
-0.14934315 -0.069453597 -0.040113539 4280376937
-0.1509269 -0.070317015 -0.041081145 4280442214
-0.15251575 -0.071181022 -0.042049352 4279915870
0.092459373 0.038185209 0.077687941 4285616211
0.091652043 0.03742047 0.076815344 4287195756
0.090839624 0.036655076 0.075942092 4286603106
0.090022072 0.035889067 0.075068228 4285813590
0.08965122 0.034514632 0.073478073 4287261036
0.089719385 0.032530896 0.07117077 4285749088
0.089772254 0.030545214 0.068861514 4284573291
0.088477381 0.030383768 0.068700068 4284115054
0.087182492 0.030222319 0.068538621 4283983468
0.085887603 0.030060869 0.068377174 4284048747
0.08459273 0.029899422 0.068215728 4284111200
0.083297841 0.029737974 0.068054274 4283782232
0.082002968 0.029576525 0.067892827 4284045150
0.080708079 0.029415077 0.06773138 4284176736
0.078986935 0.029864559 0.068288714 4283913821
0.077270888 0.030314716 0.068846732 4283913566
0.075981118 0.030153904 0.068685926 4283847003
0.074272759 0.030604981 0.069244854 4284306523
0.07298553 0.030444488 0.069084361 4283911765
0.071698315 0.030283995 0.068923868 4283383620
0.070000164 0.030736342 0.069484077 4283645509
0.068307132 0.03118933 0.07004492 4283316546
0.067025006 0.031029472 0.06988506 4283052859
0.065339632 0.031483416 0.070446856 4283118652
0.064060077 0.031323876 0.070287317 4283974727
0.062382333 0.031778809 0.070850119 4283382842
0.061105333 0.03161959 0.0706909 4283314739
0.059435278 0.032075442 0.071254604 4284432198
0.058160827 0.031916544 0.071095705 4283840061
0.056498431 0.03237335 0.07166037 4285155919
0.055611927 0.031598739 0.070777901 4285680466
0.053954646 0.032056183 0.071343206 4283112995
0.052682746 0.031897601 0.07118462 4283179299
0.051410846 0.031739019 0.071026035 4283245092
0.050138954 0.031580437 0.070867456 4283443756
0.048867054 0.031421851 0.070708871 4283186492
0.047595162 0.031263269 0.070550293 4281155888
0.04632327 0.031104689 0.070391707 4281024302
0.04505137 0.030946106 0.070233122 4280567594
0.044141885 0.030168634 0.069347791 4281355567
0.04286743 0.030009732 0.069188893 4283253041
0.041592978 0.029850831 0.069029987 4284232241
0.040318534 0.029691929 0.068871088 4283771690
0.038691893 0.030153193 0.069440208 4283506721
0.037420001 0.029994611 0.06928163 4283584083
0.035453927 0.031077655 0.070580386 4284647052
0.033153549 0.032783091 0.072609395 4284255632
0.031210475 0.033868998 0.073911019 4284453011
0.029277604 0.03495618 0.075213917 4284585113
0.027354961 0.036044635 0.076518089 4284519833
0.025776852 0.036511954 0.077093259 4284519833
0.024203835 0.036979925 0.077669092 4284519320
0.022635939 0.037448514 0.078245535 4285172373
0.021073144 0.037917759 0.078822635 4283066997
0.019515468 0.038387623 0.079400361 4282927448
0.018284431 0.038234133 0.079246871 4283909453
0.017053399 0.038080648 0.079093382 4284695620
0.01582237 0.037927158 0.078939892 4285219652
0.014591332 0.037773669 0.07878641 4285285445
0.013671633 0.036994923 0.077899799 4285351238
0.012746825 0.036215521 0.077012539 4285285445
0.01151068 0.036061395 0.076858416 4284435025
0.010578208 0.035281055 0.075970218 4284961369
0.0099417372 0.033873521 0.074346974 4285496453
0.0089965025 0.033091571 0.073457159 4284973707
0.0080461446 0.032308999 0.072566733 4284579462
0.0067972364 0.032153282 0.072411016 4284513669
0.0055483244 0.031997565 0.072255298 4284447876
0.0042994129 0.031841852 0.072099581 4285238677
-0.046484161 0.032815006 0.074259177 4291362813
-0.047704976 0.032662794 0.074106961 4291297277
-0.048925791 0.032510579 0.073954746 4290969598
-0.05014661 0.032358363 0.073802531 4289459187
-0.051367424 0.032206152 0.073650315 4290379775
-0.055029869 0.031749509 0.073193677 4288997101
-0.056250688 0.031597298 0.073041461 4288865515
-0.05730575 0.030801652 0.072137959 4289786617
-0.05852912 0.03064912 0.071985431 4289326579
-0.059752487 0.030496586 0.071832895 4289064181
-0.060817771 0.029699689 0.070928141 4290182655
-0.062043697 0.029546838 0.070775285 4289722111
-0.063269623 0.029393988 0.070622437 4289327865
-0.064645968 0.029886458 0.071222767 4289920767
-0.065869339 0.029733926 0.071070231 4289328376
-0.067238025 0.030227372 0.071671538 4288341735
-0.06845884 0.030075159 0.07151933 4289789181
-0.069679655 0.029922945 0.071367115 4289986045
-0.070762813 0.029123798 0.070460103 4290904062
-0.071986184 0.028971266 0.070307575 4291493887
-0.073342107 0.029466303 0.070910469 4286688940
-0.074562922 0.02931409 0.070758261 4283925634
-0.076754779 0.02771263 0.068941079 4283333508
-0.077980705 0.02755978 0.06878823 4279384395
-0.080432549 0.027254079 0.068482526 4280502097
-0.10308746 -0.055925027 -0.027747316 4278200397
-0.10467581 -0.055458985 -0.02717342 4278197067
-0.10615738 -0.056307789 -0.028130079 4278197846
-0.10769235 -0.056499172 -0.028321462 4279386750
-0.10922731 -0.056690551 -0.028512843 4278991992
-0.11080541 -0.056223236 -0.027937673 4278403205
-0.11233782 -0.056414299 -0.028128736 4278802338
-0.11390828 -0.05594603 -0.027552608 4278343593
-0.11543813 -0.056136776 -0.027743353 4278343597
-0.11700092 -0.055667549 -0.027166273 4278475183
-0.11852822 -0.055857975 -0.027356699 4279329463
-0.12005551 -0.056048401 -0.027547125 4280643515
-0.12158281 -0.056238826 -0.02773755 4285051097
-0.12311011 -0.056429256 -0.027927978 4286366164
-0.12461723 -0.057281245 -0.028887823 4288339954
-0.12614708 -0.057471991 -0.029078567 4287154397
-0.12766187 -0.058324933 -0.03003937 4283007666
-0.12918176 -0.059178516 -0.031000804 4281165739
-0.13070676 -0.06003277 -0.031962927 4280047258
-0.13224429 -0.060224473 -0.032154627 4278401141
-0.13377693 -0.061079647 -0.033117656 4283138977
-0.13531701 -0.061271664 -0.033309676 4281890178
-0.1368576 -0.062791906 -0.035045624 4281100148
-0.13840277 -0.062984556 -0.035238281 4280968562
-0.13995332 -0.063841961 -0.036203541 4280771697
-0.14150104 -0.064034931 -0.036396515 4280640624
-0.14306973 -0.065558717 -0.038136017 4280574831
-0.1446356 -0.066418029 -0.039103184 4280509038
-0.14622216 -0.067943998 -0.040844865 4280509038
-0.14780079 -0.068804942 -0.041813675 4280376939
-0.14936383 -0.068999827 -0.042008556 4280376939
-0.15097339 -0.070528671 -0.043753106 4280441444
-0.15256736 -0.071391486 -0.044723779 4279915100
0.091652043 0.038331877 0.075903937 4285616211
0.090839624 0.037568316 0.075028852 4288511616
0.090022072 0.03680414 0.074153155 4285813590
0.089199409 0.036039323 0.073276818 4287458415
0.089719385 0.033455141 0.070246533 4285419091
0.089772254 0.031474963 0.067931771 4285887608
0.08892151 0.030706644 0.067051932 4284180845
0.088065647 0.02993769 0.066171452 4283983466
0.086765654 0.029775605 0.066009365 4283193436
0.0850292 0.030221343 0.066566631 4283382590
0.083731763 0.030059576 0.066404864 4284501069
0.082434319 0.029897807 0.066243097 4284636769
0.08113689 0.029736042 0.06608133 4284373597
0.07941319 0.030183373 0.066640183 4284176993
0.077694617 0.030631341 0.067199677 4284111202
0.076402299 0.030470211 0.067038551 4283979618
0.07469134 0.030919168 0.067599036 4284111202
0.073401563 0.030758357 0.067438222 4284045409
0.0721118 0.030597547 0.067277417 4283912794
0.070822023 0.030436736 0.067116603 4283976791
0.069532253 0.030275924 0.06695579 4283448650
0.068242475 0.030115113 0.066794977 4283251271
0.066549435 0.030566266 0.067357652 4283184449
0.064861506 0.031018054 0.067920968 4283842377
0.063178673 0.031470478 0.068484917 4283579967
0.06189657 0.031310622 0.068325065 4283645247
0.0602214 0.031764004 0.068889968 4283578689
0.058551319 0.032218058 0.069455549 4284304726
0.057274323 0.032058839 0.06929633 4284370265
0.055611927 0.032513812 0.069862828 4284436058
0.054337479 0.032354914 0.069703929 4284436058
0.052682746 0.032810841 0.07027138 4284567898
0.051410846 0.032652259 0.070112795 4284633691
0.050138954 0.032493677 0.069954216 4283513412
0.048867054 0.032335095 0.069795631 4282788908
0.047595162 0.032176513 0.069637045 4281936927
0.046690777 0.031401504 0.068750523 4281871134
0.045416322 0.031242603 0.068591617 4280826143
0.044141885 0.031083705 0.068432719 4280565538
0.04286743 0.030924803 0.06827382 4281941288
0.041592978 0.030765902 0.068114921 4283120699
0.040318534 0.030607002 0.067956015 4283976008
0.039044078 0.0304481 0.067797117 4285431684
0.037420001 0.030907853 0.06836839 4284189321
0.035453927 0.031987224 0.069670811 4283336075
0.033498079 0.033067875 0.070974514 4283402381
0.031552449 0.034149799 0.072279483 4283665553
0.029617023 0.035232991 0.073585734 4283468946
0.028028699 0.035697199 0.074161462 4283403413
0.026111158 0.036782622 0.075469941 4283600794
0.0245356 0.037248425 0.076047264 4283995036
0.022965144 0.037714884 0.076625243 4283995290
0.021399802 0.038181957 0.077203847 4284061083
0.019839561 0.038649686 0.0777831 4284322200
0.018605968 0.03849588 0.077629291 4285169541
0.017372385 0.038342074 0.077475488 4284105800
0.016138801 0.038188267 0.077321678 4284760902
0.01490521 0.038034461 0.077167876 4285089867
0.013982963 0.037257209 0.076279096 4285618525
0.012746825 0.037103087 0.076124974 4285161578
0.011816898 0.036324896 0.075235263 4284902519
0.010881878 0.035546053 0.074344888 4284968312
0.0099417372 0.034766588 0.073453903 4284510076
0.0089965025 0.033986472 0.072562255 4284247417
0.0080461446 0.033205736 0.071669996 4283256663
0.0067972364 0.033050019 0.071514286 4283780949
0.0055483244 0.032894302 0.071358569 4283780949
0.0042994129 0.032738585 0.071202852 4284109914
0.0030505047 0.032582868 0.071047135 4283851630
0.0015183669 0.033054084 0.071629867 4285043867
-0.04462406 0.035910241 0.075935856 4291362814
-0.045837216 0.035758983 0.075784601 4291362814
-0.046861634 0.034969013 0.074883103 4291428350
-0.048077341 0.034817439 0.074731529 4291428350
-0.049293049 0.03466586 0.074579947 4291297277
-0.050508756 0.034514282 0.074428372 4290904061
-0.05154594 0.033722702 0.073525265 4290904061
-0.055200726 0.033267014 0.07306958 4290707455
-0.056418989 0.033115119 0.072917685 4290772991
-0.057471503 0.032321647 0.072012685 4290116088
-0.058692317 0.032169435 0.07186047 4289918455
-0.059913132 0.03201722 0.071708255 4289129454
-0.061133947 0.031865004 0.071556047 4288734442
-0.062354766 0.031712793 0.071403831 4289194993
-0.063575581 0.031560577 0.071251616 4290050302
-0.064796396 0.031408366 0.071099401 4289920252
-0.06601721 0.03125615 0.070947193 4289459703
-0.067238025 0.031103937 0.070794977 4290051839
-0.068601601 0.031596165 0.071398728 4289657082
-0.069679655 0.03079951 0.070490547 4290510847
-0.070900477 0.030647296 0.070338331 4291035135
-0.072121292 0.030495083 0.070186123 4292083711
-0.073342107 0.030342869 0.070033908 4286359975
-0.074432924 0.029544599 0.06912411 4282938739
-0.07552886 0.028745711 0.068213701 4284123013
-0.076629892 0.02794617 0.067302629 4283004545
-0.077858366 0.027793001 0.06714946 4279713360
-0.079086848 0.027639832 0.066996291 4278726465
-0.10456906 -0.055669911 -0.029807981 4278196294
-0.10610656 -0.055861611 -0.029999681 4278196811
-0.10764408 -0.056053311 -0.030191382 4278200416
-0.10922731 -0.055588428 -0.029614968 4279384690
-0.11080541 -0.055122949 -0.029037962 4278599803
-0.11237843 -0.05465683 -0.02846032 4279127703
-0.11394633 -0.054190073 -0.027882041 4278539681
-0.11547362 -0.054380503 -0.028072467 4278211495
-0.11700092 -0.054570928 -0.028262895 4278211752
-0.11852822 -0.054761354 -0.02845332 4278935477
-0.12008335 -0.054292966 -0.027873402 4278933420
-0.12160809 -0.054483075 -0.02806351 4279392926
-0.12313283 -0.054673184 -0.028253619 4287090160
-0.12463741 -0.05552306 -0.029215027 4288142847
-0.1261647 -0.055713486 -0.029405452 4282613926
-0.12767693 -0.056564279 -0.030367769 4281297064
-0.12919427 -0.057415709 -0.03133072 4280046999
-0.13071673 -0.058267772 -0.032294311 4278335588
-0.13224429 -0.059120513 -0.033258583 4281098894
-0.13377693 -0.059973855 -0.034223445 4282086789
-0.13531701 -0.060165875 -0.034415465 4281297527
-0.1368576 -0.061682444 -0.036155082 4280902769
-0.13840277 -0.061875101 -0.036347739 4280902769
-0.13995332 -0.06273067 -0.037314832 4280705904
-0.14150897 -0.063586913 -0.038282607 4280574831
-0.1430802 -0.065107308 -0.040026046 4280574831
-0.14466166 -0.066628978 -0.04177076 4280574831
-0.14623773 -0.067487769 -0.042741083 4280443245
-0.14781892 -0.068347156 -0.043711998 4280311659
-0.14940523 -0.069207184 -0.044683546 4280311146
-0.15097339 -0.069402702 -0.044879071 4280309345
0.090382703 0.039085019 0.074834265 4287787639
0.089567728 0.038322978 0.073957026 4289695888
0.089199409 0.036956232 0.072359905 4287590512
0.089365639 0.03103319 0.065400124 4284573804
0.08850725 0.030265713 0.064517453 4284573804
0.087204702 0.030103309 0.064355046 4282006594
0.085902169 0.029940907 0.064192645 4283705130
0.084165663 0.030384846 0.064751782 4284227099
0.083297074 0.029616099 0.063867837 4284227099
0.0815657 0.030060677 0.064427614 4284687650
0.079839453 0.030505855 0.064987987 4285480509
0.078118317 0.030951671 0.065548986 4285356897
0.076823436 0.030790223 0.06538754 4284176995
0.075528562 0.030628776 0.065226093 4284176995
0.074233674 0.030467326 0.065064646 4284308583
0.072938792 0.030305877 0.064903192 4283848032
0.071643911 0.030144429 0.064741746 4283845720
0.069940656 0.030592473 0.065304987 4282655534
0.068648323 0.030431343 0.065143853 4282523948
0.06735599 0.030270213 0.06498272 4283113508
0.065662928 0.030719569 0.06554728 4283178786
0.063974991 0.031169523 0.066112421 4283048483
0.062687784 0.03100903 0.065951928 4283775036
0.061007507 0.031459939 0.066518031 4284432966
0.059332337 0.031911489 0.067084767 4284370519
0.05805023 0.031751633 0.066924915 4284502621
0.056382727 0.032204136 0.067492604 4284306271
0.054720316 0.03265731 0.068060979 4284306271
0.053443309 0.032498091 0.06790176 4284306271
0.052166302 0.032338873 0.067742541 4284371549
0.050889302 0.032179654 0.067583323 4284239449
0.049612295 0.032020435 0.067424104 4284566100
0.048335291 0.031861212 0.067264885 4282394400
0.047058292 0.031701993 0.067105666 4282328607
0.045781285 0.031542774 0.066946447 4281805595
0.044504285 0.031383555 0.066787228 4281217308
0.043227278 0.031224336 0.066628009 4281676835
0.041950271 0.031065118 0.06646879 4283652954
0.040673271 0.030905899 0.066309571 4286153088
0.039044078 0.031363178 0.066882037 4284648074
0.037769634 0.031204276 0.066723138 4284453009
0.035801008 0.032279663 0.068028912 4283665807
0.033842616 0.033356309 0.069335938 4283600530
0.031894427 0.034434244 0.070644259 4283534737
0.030295875 0.034895364 0.071220577 4283337620
0.028365565 0.035975531 0.072531126 4283272342
0.026779788 0.036438219 0.073109008 4283338137
0.024867352 0.037520614 0.074421786 4283206551
0.023294356 0.037984904 0.075001262 4283469723
0.022053104 0.03783014 0.074846506 4283469723
0.020487756 0.038295399 0.075426959 4283469208
0.019249057 0.038140956 0.075272515 4284255380
0.017691374 0.03860715 0.075853899 4284904056
0.016455244 0.038453028 0.075699776 4284368207
0.015532978 0.037677627 0.074809186 4285026137
0.014605625 0.036901575 0.073917933 4285291108
0.013364373 0.036746811 0.073763177 4284834670
0.012123122 0.036592051 0.073608413 4284574324
0.011185542 0.03581474 0.072715916 4284574324
0.010242853 0.035036776 0.071822755 4284114548
0.0092950566 0.034258191 0.070928976 4283323228
0.008342145 0.033478968 0.070034564 4283713871
0.0070906836 0.033322934 0.069878533 4284107343
0.0058392147 0.0331669 0.069722496 4284107343
0.0042994129 0.033635322 0.070306115 4284370255
0.0030505047 0.033479605 0.070150398 4283519063
0.0018015967 0.033323891 0.069994681 4285306265
-8.6731079e-06 0.034419023 0.071320198 4284584595
-0.001252478 0.034263942 0.071165115 4284584595
-0.0027718488 0.034734916 0.071751282 4284585109
-0.014232676 0.037268475 0.074975997 4285177763
-0.015458599 0.037115626 0.074823149 4285111970
-0.043803703 0.038204432 0.076718301 4286427317
-0.044817902 0.03741755 0.075816222 4287612102
-0.046028502 0.037266612 0.075665288 4288138446
-0.047050368 0.036478791 0.074762277 4289191134
-0.048449703 0.036964729 0.075363405 4289718250
-0.049476676 0.036176272 0.074459761 4290509049
-0.050689828 0.036025014 0.0743085 4290969599
-0.051902983 0.035873756 0.074157245 4291231743
-0.052940171 0.035084028 0.07325232 4291035135
-0.054155879 0.034932449 0.073100746 4291100671
-0.055371586 0.034780875 0.072949171 4291297279
-0.056418989 0.03398985 0.072042949 4291362815
-0.057637248 0.033837955 0.071891055 4290969599
-0.058855511 0.03368606 0.07173916 4291035135
-0.060073774 0.033534165 0.071587265 4290904063
-0.061292034 0.03338227 0.07143537 4290838527
-0.062510297 0.033230375 0.071283475 4290838527
-0.063728556 0.033078481 0.07113158 4290904063
-0.06509725 0.033568259 0.071736552 4290904063
-0.066312954 0.033416681 0.071584977 4290904062
-0.067528665 0.033265106 0.071433403 4290969598
-0.068887137 0.033756137 0.072039627 4291035135
-0.06996008 0.032961953 0.071130246 4291100670
-0.071038127 0.032167107 0.07022021 4291362815
-0.072121292 0.031371649 0.069309555 4291821567
-0.073342107 0.031219434 0.06915734 4284714380
-0.074432924 0.030422997 0.068245716 4284056450
-0.075401418 0.028981406 0.066573732 4283333499
-0.076505005 0.028183397 0.065660536 4282807164
-0.077613704 0.027384752 0.0647467 4280568669
-0.078847297 0.027230944 0.06459289 4278331707
-0.079963654 0.026431324 0.063678078 4281027675
-0.10286376 -0.056334566 -0.033026122 4278199879
-0.10446231 -0.055873465 -0.032449834 4278196032
-0.10605574 -0.055411726 -0.031872906 4278195776
-0.10759582 -0.055603746 -0.032064922 4278197320
-0.10918159 -0.055141054 -0.03148704 4278526285
-0.11076226 -0.054677684 -0.030908473 4279055459
-0.11237843 -0.053558372 -0.029558778 4278927735
-0.11394633 -0.053093448 -0.028978664 4278204534
-0.11550912 -0.052627854 -0.028397871 4278538396
-0.11703386 -0.052817959 -0.028587978 4278604189
-0.11858899 -0.052351449 -0.028006272 4278474924
-0.12011118 -0.052541237 -0.028196063 4278540719
-0.12163337 -0.052731026 -0.028385852 4278868912
-0.12313283 -0.053578392 -0.029348409 4279591856
-0.12465758 -0.053768501 -0.029538518 4279920821
-0.1261647 -0.054616861 -0.030502077 4280708786
-0.12767693 -0.055465821 -0.031466227 4280441755
-0.12919427 -0.056315415 -0.032431014 4279124584
-0.13071673 -0.057165649 -0.033396434 4282612617
-0.13224429 -0.058016557 -0.034362543 4281823101
-0.13377693 -0.058868062 -0.035329238 4280968562
-0.13531472 -0.059720203 -0.036296576 4280836976
-0.1368576 -0.060572986 -0.037264545 4280640111
-0.13840559 -0.061426401 -0.038233154 4280574318
-0.13995869 -0.062280495 -0.039202444 4280443245
-0.14151689 -0.063135184 -0.040172324 4280443245
-0.1430802 -0.063990511 -0.041142844 4280443245
-0.14466166 -0.065508515 -0.042891223 4280245866
-0.14625332 -0.067027822 -0.044640925 4279982694
-0.14783707 -0.067885697 -0.045613993 4279982694
-0.14942591 -0.068744212 -0.046587694 4279982181
0.087643728 0.030434718 0.062697105 4282861387
0.086338639 0.030271998 0.062534384 4283835173
0.085033521 0.030109273 0.06237166 4284422161
0.083297074 0.030551344 0.062932588 4284356368
0.081994541 0.030388942 0.062770188 4284553488
0.080691978 0.030226536 0.06260778 4284684304
0.078965716 0.030669918 0.063170031 4284554517
0.07724458 0.0311139 0.06373287 4283901993
0.075947143 0.030952133 0.063571103 4285612611
0.074649699 0.030790364 0.063409336 4284766045
0.073352277 0.030628599 0.063247569 4284110175
0.072054833 0.030466832 0.063085802 4283649361
0.07034903 0.030912725 0.063650556 4282523936
0.069054142 0.030751277 0.063489109 4282392350
0.067759261 0.030589828 0.063327655 4283374104
0.066464379 0.03042838 0.063166209 4283439382
0.064771339 0.030875864 0.06373255 4283701782
0.06308338 0.031324022 0.064299576 4283505686
0.06179361 0.03116321 0.064138763 4283571479
0.060113333 0.031612288 0.064706698 4283441440
0.058438178 0.032062002 0.065275274 4284169026
0.057153504 0.031901825 0.065115102 4284041041
0.055486012 0.032352496 0.065684624 4284305756
0.054203898 0.03219264 0.065524772 4284305756
0.052921783 0.03203278 0.065364912 4284372064
0.051264502 0.032484725 0.065935716 4284307552
