# .PCD v0.7 - Point Cloud Data file format
VERSION 0.7
FIELDS x y z rgb
SIZE 4 4 4 4
TYPE F F F U
COUNT 1 1 1 1
WIDTH 1015
HEIGHT 1
VIEWPOINT 0 0 0 1 0 0 0
POINTS 1015
DATA ascii
-0.14641139 0.053360194 -0.037998807 4288806912
-0.14700459 0.052766982 -0.037998807 4288151552
-0.1475978 0.052173771 -0.037998807 4288151552
-0.14819102 0.051580556 -0.037998807 4288546560
-0.14878424 0.050987344 -0.037998807 4288743939
-0.14937745 0.050394133 -0.037998807 4288743680
-0.14997065 0.049800921 -0.037998807 4288677888
-0.15056387 0.04920771 -0.037998807 4289005056
-0.15115708 0.048614498 -0.037998807 4289005056
-0.1517503 0.048021287 -0.037998807 4289201664
-0.1523435 0.047428071 -0.037998807 4289201664
-0.15293671 0.04683486 -0.037998807 4289135872
-0.15352993 0.046241648 -0.037998807 4289135872
-0.15412314 0.045648437 -0.037998807 4289069824
-0.15471636 0.045055222 -0.037998807 4288872448
-0.15485349 0.043964501 -0.038830876 4288872448
-0.15544787 0.043370124 -0.038830876 4289004032
-0.15558848 0.042275865 -0.039662994 4288741632
-0.15618402 0.041680317 -0.039662994 4288675840
-0.15632817 0.040582594 -0.040495079 4287824640
-0.15647464 0.03948253 -0.041327149 4287430656
-0.15662345 0.038380131 -0.042159222 4285268736
-0.1567746 0.037275396 -0.042991295 4285005824
-0.15692805 0.036168292 -0.04382341 4283957504
-0.15663831 0.034550875 -0.045487568 4283891712
-0.15679763 0.033437964 -0.046319641 4283629568
-0.15695925 0.03232269 -0.047151756 4283629568
-0.15668119 0.030693591 -0.048815913 4283367936
-0.15684868 0.029572507 -0.049647987 4283499520
-0.15701851 0.028449088 -0.050480057 4282454787
-0.15675209 0.026808277 -0.052144244 4282586373
-0.15649037 0.025162831 -0.053808402 4281605384
-0.15666954 0.024030071 -0.054640476 4281342212
-0.15641595 0.022376411 -0.056304663 4281342212
-0.15660097 0.021237811 -0.057136737 4280423940
-0.15635557 0.019575985 -0.058800936 4280160768
-0.15611486 0.017909516 -0.060465079 4280684034
-0.15587884 0.01623838 -0.062129237 4280947206
-0.15607667 0.015086902 -0.062961355 4282909956
-0.15627685 0.013933122 -0.063793428 4282975749
-0.15647939 0.012777008 -0.064625494 4283239940
-0.15625851 0.011090659 -0.066289701 4283634698
-0.15646687 0.0099287042 -0.067121774 4283504132
-0.15625419 0.0082342084 -0.068785913 4283240960
-0.1568906 0.0075977915 -0.068785913 4283173888
-0.15668491 0.0058962605 -0.070450112 4283042304
-0.15732367 0.0052575041 -0.070450112 4283697664
-0.157125 0.0035489949 -0.072114259 4283763456
-0.15734854 0.0023718653 -0.072946332 4283828736
-0.12738086 -0.049670011 -0.14450561 4288767300
-0.12893763 -0.049319554 -0.1428414 4289227851
-0.12967798 -0.050059903 -0.1428414 4289424971
-0.13122773 -0.049702473 -0.14117725 4289556557
-0.13236926 -0.049890425 -0.14034519 4289688143
-0.13350847 -0.050076041 -0.13951311 4289490764
-0.13464537 -0.0502593 -0.13868098 4289556557
-0.1357799 -0.050440248 -0.13784891 4289490764
-0.13691211 -0.050618853 -0.13701683 4289490762
-0.13804197 -0.050795138 -0.13618477 4289293383
-0.13916953 -0.050969042 -0.13535266 4289096004
-0.14029472 -0.051140651 -0.13452056 4288898625
-0.14102338 -0.051869322 -0.13452056 4289029191
-0.14214507 -0.052037425 -0.13368849 4287844917
-0.14326443 -0.052203197 -0.13285641 4286465578
-0.14399077 -0.052929528 -0.13285641 4285741855
-0.14510663 -0.053091794 -0.13202435 4284756509
-0.14583178 -0.053816959 -0.13202435 4284493337
-0.14655696 -0.054542128 -0.13202435 4284559130
-0.14728212 -0.055267297 -0.13202435 4284559130
-0.14800729 -0.055992462 -0.13202435 4284427542
-0.14873245 -0.05671763 -0.13202435 4284559128
-0.14945762 -0.057442795 -0.13202435 4284428312
-0.14980145 -0.058740202 -0.13285641 4284362519
-0.15052778 -0.059466537 -0.13285641 4284296728
-0.15087511 -0.060767453 -0.13368849 4284362521
-0.15122476 -0.062070705 -0.13452056 4284494107
-0.15195344 -0.062799379 -0.13452056 4284625693
-0.15268211 -0.063528046 -0.13452056 4284757025
-0.15303645 -0.064835958 -0.13535266 4284757025
-0.15376629 -0.065565795 -0.13535266 4284625693
-0.1541241 -0.066877253 -0.13618477 4284823072
-0.15448426 -0.068191014 -0.13701683 4284757792
-0.1544771 -0.070091031 -0.13868098 4284889378
-0.1541061 -0.072580844 -0.14117725 4284757790
-0.15300743 -0.076250173 -0.14533767 4284823583
-0.14256425 -0.10109016 -0.1761248 4283047954
-0.14190532 -0.10424563 -0.17945313 4282455817
-0.14161606 -0.10681719 -0.18194941 4281603853
-0.14205214 -0.10820685 -0.18278149 4281406474
-0.14284854 -0.10900325 -0.18278149 4281211148
-0.14364493 -0.10979965 -0.18278149 4281276941
-0.14408568 -0.11119398 -0.18361354 4281341710
-0.14488325 -0.11199155 -0.18361354 4281407503
-0.14532749 -0.11338938 -0.18444563 4281407244
-0.14612623 -0.11418811 -0.18444563 4281275658
-0.14692496 -0.11498684 -0.18444563 4281473037
-0.14772369 -0.11578558 -0.18444563 4281538830
-0.14852244 -0.11658432 -0.18444563 4281473037
-0.14932117 -0.11738306 -0.18444563 4281407244
-0.1501199 -0.11818179 -0.18444563 4281473037
-0.15126377 -0.11837208 -0.18361354 4281473037
-0.15206134 -0.11916965 -0.18361354 4281407244
-0.15285891 -0.11996721 -0.18361354 4281407244
-0.15365647 -0.12076478 -0.18361354 4281473035
-0.15445404 -0.12156235 -0.18361354 4281538828
-0.15525161 -0.12235992 -0.18361354 4281407242
-0.15604918 -0.12315749 -0.18361354 4281407242
-0.15718372 -0.12333844 -0.18278149 4281603849
-0.15798011 -0.12413483 -0.18278149 4281603849
-0.15877652 -0.12493123 -0.18278149 4281603849
-0.15957291 -0.12572762 -0.18278149 4281538056
-0.1607016 -0.12590274 -0.18194941 4281603336
-0.16149683 -0.12669797 -0.18194941 4281471750
-0.16262206 -0.12686954 -0.18111728 4281603336
-0.16374491 -0.12703882 -0.1802852 4281734922
-0.1645378 -0.12783171 -0.1802852 4281603849
-0.16533071 -0.1286246 -0.1802852 4281538056
-0.1661236 -0.12941751 -0.1802852 4281406472
-0.16691649 -0.1302104 -0.1802852 4281538058
-0.16770938 -0.13100329 -0.1802852 4281144072
-0.16850229 -0.1317962 -0.1802852 4281144072
-0.16929518 -0.13258909 -0.1802852 4280750343
-0.17008808 -0.13338199 -0.1802852 4280421378
-0.17088097 -0.13417488 -0.1802852 4280158468
-0.17135677 -0.13560425 -0.18111728 4280224261
-0.17215082 -0.1363983 -0.18111728 4280750597
-0.17263007 -0.13783121 -0.18194941 4281013769
-0.17311169 -0.1392664 -0.18278149 4281013767
-0.1739081 -0.14006281 -0.18278149 4281079560
-0.17470449 -0.1408592 -0.18278149 4281407755
-0.17519078 -0.14229909 -0.18361354 4281407755
-0.17598835 -0.14309666 -0.18361354 4281210376
-0.17678592 -0.14389423 -0.18361354 4281210376
-0.17727686 -0.14533876 -0.18444563 4281341962
-0.17807561 -0.14613749 -0.18444563 4281407755
-0.17887434 -0.14693622 -0.18444563 4281473548
-0.17967308 -0.14773497 -0.18444563 4281407755
-0.18047181 -0.1485337 -0.18444563 4281407242
-0.18127055 -0.14933243 -0.18444563 4281473035
-0.18206927 -0.15013117 -0.18444563 4281473033
-0.182868 -0.1509299 -0.18444563 4281407240
-0.18366675 -0.15172863 -0.18444563 4281603851
-0.18446548 -0.15252736 -0.18444563 4281735437
-0.18526421 -0.15332611 -0.18444563 4281735439
-0.18606295 -0.15412484 -0.18444563 4281669646
-0.18686169 -0.15492357 -0.18444563 4281734924
-0.18766043 -0.15572231 -0.18444563 4281734924
-0.18845916 -0.15652104 -0.18444563 4281669131
-0.18925789 -0.15731978 -0.18444563 4281669131
-0.19034454 -0.15745285 -0.18361354 4281734922
-0.19114211 -0.15825042 -0.18361354 4281866508
-0.19193968 -0.15904799 -0.18361354 4281800715
-0.19273725 -0.15984556 -0.18361354 4281734922
-0.19353482 -0.16064313 -0.18361354 4281669129
-0.19433239 -0.1614407 -0.18361354 4281669642
-0.19512995 -0.16223826 -0.18361354 4281735435
-0.1959275 -0.16303581 -0.18361354 4281669644
-0.19672507 -0.16383338 -0.18361354 4281669644
-0.19724523 -0.16530712 -0.18444563 4281735439
-0.19804396 -0.16610585 -0.18444563 4281669646
-0.1988427 -0.16690458 -0.18444563 4281866510
-0.19964144 -0.16770332 -0.18444563 4281800717
-0.2001674 -0.16918294 -0.18527775 4281734922
-0.20096731 -0.16998285 -0.18527775 4281800715
-0.20176722 -0.17078276 -0.18527775 4281734922
-0.20256712 -0.17158265 -0.18527775 4281800715
-0.20309895 -0.17306806 -0.18610983 4281735435
-0.20390002 -0.17386913 -0.18610983 4281669642
-0.2047011 -0.1746702 -0.18610983 4281669642
-0.20550217 -0.17547128 -0.18610983 4281735435
-0.20630324 -0.17627235 -0.18610983 4281800715
-0.2071043 -0.1770734 -0.18610983 4281800715
-0.20790535 -0.17787448 -0.18610983 4281800969
-0.20870642 -0.17867555 -0.18610983 4281800969
-0.20950751 -0.17947662 -0.18610983 4281800969
-0.21030857 -0.18027769 -0.18610983 4281800969
-0.21110964 -0.18107876 -0.18610983 4281735176
-0.21191072 -0.18187983 -0.18610983 4281735176
-0.21271178 -0.18268089 -0.18610983 4281865992
-0.21351285 -0.18348198 -0.18610983 4281997578
-0.21431394 -0.18428305 -0.18610983 4281997578
-0.215115 -0.1850841 -0.18610983 4281997578
-0.21591607 -0.18588519 -0.18610983 4281997578
-0.21671714 -0.18668626 -0.18610983 4281997578
-0.21751821 -0.18748732 -0.18610983 4281865992
-0.21831928 -0.18828839 -0.18610983 4281931785
-0.21912035 -0.18908946 -0.18610983 4281866762
-0.21992142 -0.18989053 -0.18610983 4281800969
-0.22072248 -0.19069159 -0.18610983 4281800969
-0.22152355 -0.19149266 -0.18610983 4281800969
-0.22256467 -0.19158021 -0.18527775 4281735174
-0.22336458 -0.1923801 -0.18527775 4281800967
-0.22416447 -0.19318001 -0.18527775 4281800967
-0.22496438 -0.19397992 -0.18527775 4281866760
-0.22576427 -0.19477981 -0.18527775 4281866760
-0.22656418 -0.19557972 -0.18527775 4281800967
-0.22759715 -0.19565903 -0.18444563 4281800967
-0.22839588 -0.19645776 -0.18444563 4281800967
-0.22919461 -0.19725651 -0.18444563 4281735428
-0.22999334 -0.19805524 -0.18444563 4281735428
-0.23102045 -0.19812876 -0.18361354 4281867014
-0.23181802 -0.19892633 -0.18361354 4281867014
-0.23261559 -0.1997239 -0.18361354 4281735941
-0.23363802 -0.19979273 -0.18278149 4281735941
-0.23443441 -0.20058912 -0.18278149 4281867527
-0.23545334 -0.20065448 -0.18194941 4281999113
-0.23646995 -0.20071743 -0.18111728 4281932807
-0.23748422 -0.20077811 -0.1802852 4282195979
-0.23849615 -0.20083645 -0.17945313 4282327563
-0.23972359 -0.20015673 -0.177789 4282130184
-0.24072969 -0.20020919 -0.17695686 4282064391
-0.24194898 -0.1995213 -0.17529272 4282261770
-0.24316359 -0.19882868 -0.17362851 4282655758
-0.24416034 -0.19887184 -0.17279644 4282655758
-0.24536677 -0.19817109 -0.17113231 4285151769
-0.24614683 -0.19895115 -0.17113231 4287454524
-0.24734627 -0.19824336 -0.1694681 4287717944
-0.2483325 -0.19827601 -0.16863602 4287783737
-0.24910903 -0.19905256 -0.16863602 4287980603
-0.25009179 -0.1990817 -0.16780396 4288112189
-0.25086716 -0.19985709 -0.16780396 4288373566
-0.25164253 -0.20063244 -0.16780396 4287781429
-0.25241792 -0.20140783 -0.16780396 4286991411
-0.25319329 -0.2021832 -0.16780396 4286136102
-0.25396866 -0.20295858 -0.16780396 4285808164
-0.25474405 -0.20373397 -0.16780396 4285610785
-0.25551945 -0.20450936 -0.16780396 4285677346
-0.25629482 -0.20528473 -0.16780396 4286072104
-0.25707018 -0.20606011 -0.16780396 4286666287
-0.25784555 -0.20683548 -0.16780396 4286929459
-0.25862095 -0.20761088 -0.16780396 4286994739
-0.25920415 -0.20914768 -0.16863602 4287389497
-0.25998071 -0.20992422 -0.16863602 4287980866
-0.26075724 -0.21070077 -0.16863602 4288244038
-0.26134512 -0.21224222 -0.1694681 4288244288
-0.26174784 -0.21455216 -0.17113231 4287981116
-0.26252788 -0.21533222 -0.17113231 4288177466
-0.26293758 -0.21764909 -0.17279644 4287980087
-0.26353598 -0.21920107 -0.17362851 4286730038
-0.2641367 -0.22075544 -0.17446065 4284756248
-0.26473975 -0.22231208 -0.17529272 4284427810
-0.26534516 -0.22387105 -0.1761248 4284427810
-0.26577356 -0.22620668 -0.177789 4283968034
-0.26656294 -0.22699606 -0.177789 4282783760
-0.26717535 -0.22856207 -0.17862105 4281470732
-0.26796591 -0.22935264 -0.17862105 4281273353
-0.26858181 -0.23092213 -0.17945313 4280814601
-0.26937354 -0.23171386 -0.17945313 4280814601
-0.27016526 -0.23250559 -0.17945313 4280881161
-0.27095699 -0.23329732 -0.17945313 4280946954
-0.27174872 -0.23408905 -0.17945313 4281078792
-0.27254045 -0.23488078 -0.17945313 4280947206
-0.27333218 -0.2356725 -0.17945313 4280882183
-0.27412391 -0.2364642 -0.17945313 4280882183
-0.27491564 -0.23725593 -0.17945313 4280947976
-0.27570736 -0.23804766 -0.17945313 4281013769
-0.2763361 -0.23963 -0.1802852 4281144585
-0.27712899 -0.2404229 -0.1802852 4281210378
-0.27792189 -0.2412158 -0.1802852 4281210376
-0.27871481 -0.2420087 -0.1802852 4281539341
-0.2795077 -0.24280159 -0.1802852 4282000142
-0.28030059 -0.2435945 -0.1802852 4282065935
-0.28093752 -0.245185 -0.18111728 4282524942
-0.28173158 -0.24597907 -0.18111728 4282524942
-0.28252566 -0.24677314 -0.18111728 4282524942
-0.28331971 -0.24756721 -0.18111728 4282524942
-0.28411376 -0.24836124 -0.18111728 4282393354
-0.28490782 -0.24915531 -0.18111728 4282524940
-0.2857019 -0.24994938 -0.18111728 4282787342
-0.28649595 -0.25074345 -0.18111728 4282721549
-0.28729001 -0.2515375 -0.18111728 4282721549
-0.28808409 -0.25233155 -0.18111728 4282655756
-0.28887814 -0.25312564 -0.18111728 4282786830
-0.28967223 -0.25391969 -0.18111728 4282786830
-0.29046625 -0.25471374 -0.18111728 4283179794
-0.29140112 -0.25469503 -0.1802852 4283048208
-0.29219401 -0.25548792 -0.1802852 4283048208
-0.29298693 -0.25628084 -0.1802852 4283048208
-0.29377982 -0.2570737 -0.1802852 4283048208
-0.29457271 -0.25786662 -0.1802852 4282982928
-0.2953656 -0.25865951 -0.1802852 4282982928
-0.29615852 -0.25945243 -0.1802852 4282851342
-0.29695141 -0.26024529 -0.1802852 4282785549
-0.29787576 -0.26021606 -0.17945313 4282720526
-0.29866749 -0.26100779 -0.17945313 4283049491
-0.29945922 -0.26179951 -0.17945313 4283048969
0.14970602 0.17768072 -0.18959144 4281734922
0.14812367 0.17705078 -0.18875794 4281669129
0.14732027 0.17624739 -0.18875794 4281603590
0.14651686 0.17544398 -0.18875794 4281735176
0.14571343 0.17464055 -0.18875794 4281669383
0.14491004 0.17383716 -0.18875794 4281735176
0.14410664 0.17303374 -0.18875794 4281735176
0.14330323 0.17223035 -0.18875794 4281735176
0.14249983 0.17142694 -0.18875794 4281800199
0.14169642 0.17062354 -0.18875794 4281931785
0.140893 0.16982011 -0.18875794 4281735176
0.1400896 0.1690167 -0.18875794 4281669383
0.13928619 0.16821331 -0.18875794 4281669129
0.13771902 0.16759855 -0.18792443 4281603336
0.13691679 0.16679633 -0.18792443 4281669131
0.13611455 0.16599408 -0.18792443 4281669131
0.13455205 0.16538399 -0.18709093 4281669131
0.13375098 0.16458292 -0.18709093 4281734924
0.13294992 0.16378187 -0.18709093 4281603336
0.13214883 0.16298078 -0.18709093 4281669129
0.13134776 0.16217972 -0.18709093 4281603336
0.1305467 0.16137865 -0.18709093 4281669129
0.12974562 0.16057757 -0.18709093 4281669129
0.12894456 0.15977651 -0.18709093 4281800969
0.12814349 0.15897544 -0.18709093 4281800969
0.12809217 0.1579717 -0.18792443 4281735176
0.12728992 0.15716946 -0.18792443 4281669383
0.1264877 0.15636723 -0.18792443 4281603590
0.12568545 0.15556499 -0.18792443 4281669383
0.12488321 0.15476274 -0.18792443 4281800969
0.12333706 0.15416901 -0.18709093 4281735176
0.12253598 0.15336792 -0.18709093 4281800969
0.12173492 0.15256687 -0.18709093 4281669383
0.12093385 0.15176579 -0.18709093 4281735174
0.033543073 0.16723765 -0.097071335 4287849282
0.032141704 0.16678871 -0.096237846 4284623628
0.031467922 0.16611494 -0.096237846 4286005281
0.030794133 0.16544114 -0.096237846 4288170030
0.030120341 0.16476735 -0.096237846 4284748800
0.028724834 0.16432427 -0.095404334 4286187776
0.027331647 0.16388349 -0.09457083 4286385152
0.026660195 0.16321205 -0.09457083 4286646528
0.025270469 0.16277479 -0.093737274 4286514944
0.02388313 0.16233987 -0.092903771 4286842624
0.023214007 0.16167074 -0.092903771 4286974210
0.021830164 0.16123933 -0.092070267 4287302921
0.020448662 0.16081023 -0.091236755 4287631886
0.019781878 0.16014345 -0.091236755 4288357142
0.018403869 0.15971787 -0.090403266 4287966230
0.017738255 0.15905225 -0.090403266 4289742641
0.016363712 0.15863019 -0.089569703 4288890148
0.014991544 0.15821044 -0.088736199 4287969046
0.013621717 0.15779303 -0.087902695 4287837464
0.0129596 0.15713091 -0.087902695 4287640085
0.011593271 0.156717 -0.087069191 4287638548
0.010932335 0.15605606 -0.087069191 4287177997
0.0095694717 0.15564568 -0.086235642 4287241482
0.0089097051 0.15498592 -0.086235642 4287636240
0.0075503825 0.15457901 -0.085402139 4288294168
0.0068917749 0.1539204 -0.085402139 4288623133
0.0055359504 0.15351699 -0.084568635 4288428316
0.0048785121 0.15285955 -0.084568635 4288494109
0.0035261966 0.15245967 -0.083735131 4287571985
0.002869928 0.15180339 -0.083735131 4287966743
0.0015211211 0.151407 -0.082901627 4287374606
0.00086601154 0.15075189 -0.082901627 4288032536
0.00021091255 0.15009679 -0.082901627 4286846983
-0.00044419698 0.14944169 -0.082901627 4287241741
-0.0017872084 0.14905116 -0.082068078 4285991168
-0.0024411483 0.14839722 -0.082068078 4285793792
-0.0030950778 0.14774328 -0.082068078 4285268736
-0.0044333795 0.1473574 -0.081234574 4285137152
-0.0050861393 0.14670464 -0.081234574 4282910976
-0.0057389098 0.14605187 -0.081234574 4282845184
-0.0063916803 0.14539911 -0.081234574 4282453504
-0.0070444401 0.14474635 -0.081234574 4282716676
-0.0076972106 0.14409357 -0.081234574 4282717446
-0.0076726153 0.14316575 -0.082068078 4282717446
-0.0083265556 0.14251181 -0.082068078 4282651653
-0.0083054164 0.14158046 -0.082901627 4282454274
-0.0089605264 0.14092536 -0.082901627 4282125824
-0.0096156253 0.14027026 -0.082901627 4281928448
-0.009599207 0.13933426 -0.083735131 4281468928
-0.0095851272 0.13839592 -0.084568635 4281666304
-0.010242566 0.13773848 -0.084568635 4281732608
-0.010231984 0.13679664 -0.085402139 4281666816
-0.010223731 0.13585249 -0.086235642 4281731842
-0.010217787 0.13490595 -0.087069191 4281534464
-0.010214212 0.1339571 -0.087902695 4281338368
-0.010212956 0.13300593 -0.088736199 4281601539
-0.010214049 0.13205242 -0.089569703 4281206784
-0.010217445 0.13109656 -0.090403266 4281009408
-0.010223212 0.13013837 -0.091236755 4280550400
-0.010231311 0.12917784 -0.092070267 4280484608
-0.010241752 0.12821499 -0.092903771 4280485120
-0.010910864 0.12754588 -0.092903771 4280682497
-0.010924812 0.12657951 -0.093737274 4280682752
-0.010941053 0.1256108 -0.09457083 4280485376
-0.010959658 0.12463977 -0.095404334 4280682752
-0.010980613 0.1236664 -0.096237846 4280616960
-0.011003891 0.12269069 -0.097071335 4280682752
-0.010380129 0.12140957 -0.098738402 4280682752
-0.01040925 0.12042803 -0.099571906 4280616960
-0.0097937118 0.11913873 -0.10123891 4280485376
-0.009828628 0.11815133 -0.10207246 4280550400
-0.0092212558 0.11685387 -0.10373947 4280550400
-0.0086185616 0.11555173 -0.10540648 4280550400
-0.0080204932 0.11424489 -0.10707353 4280353536
-0.0067859418 0.11262213 -0.10957409 4280419328
-0.0061984095 0.11130483 -0.1112411 4280288512
-0.0056155664 0.10998283 -0.11290811 4280222720
-0.0050373492 0.10865615 -0.11457516 4280157440
-0.0044638524 0.10732481 -0.11624217 4280091648
-0.0032596467 0.1056717 -0.11874273 4279960832
-0.0020624637 0.10401157 -0.1212433 4280026624
-0.00023932346 0.10202503 -0.12457731 4280026624
0.0022063591 0.099708505 -0.12874493 4280026624
0.0040096426 0.097702116 -0.13207895 4279895552
0.007062627 0.09504047 -0.13708006 4279763968
0.010101566 0.092364833 -0.14208113 4279763968
0.012499333 0.090000443 -0.1462487 4279239168
0.015511414 0.087297954 -0.15124977 4279239168
0.019134331 0.084253818 -0.15708439 4279043072
0.019622587 0.082837239 -0.1587514 4279240448
0.020106211 0.081415974 -0.16041847 4278912000
0.019342519 0.080652282 -0.16041847 4278780416
0.018578809 0.079888575 -0.16041847 4278583552
0.017815107 0.079124868 -0.16041847 4278583552
0.016433595 0.078695774 -0.15958495 4278584064
0.015671063 0.077933244 -0.15958495 4278649856
0.014293022 0.077507675 -0.1587514 4278649856
0.012917347 0.077084415 -0.15791789 4278715648
0.012157155 0.076324224 -0.15791789 4278911744
0.010784983 0.075904474 -0.15708439 4278911744
0.0094151497 0.07548707 -0.15625089 4279042817
0.0086572869 0.074729204 -0.15625089 4279042817
0.0072909258 0.07431531 -0.15541734 4278977537
0.0065342262 0.073558614 -0.15541734 4278911744
0.0051713949 0.073148213 -0.15458384 4278911744
0.0044158655 0.07239268 -0.15458384 4278911744
0.0036603357 0.071637154 -0.15458384 4278911744
0.0029048061 0.07088162 -0.15458384 4278911744
0.0027507513 0.069775142 -0.15541734 4278911744
0.001994052 0.069018438 -0.15541734 4278911744
0.0012373581 0.068261743 -0.15541734 4278845952
0.00048065878 0.067505047 -0.15541734 4278845952
-0.00027603519 0.066748351 -0.15541734 4278715136
-0.0010327344 0.065991655 -0.15541734 4278649344
-0.0011949451 0.064876974 -0.15625089 4278584064
-0.0019528086 0.064119108 -0.15625089 4278584064
-0.002710667 0.06336125 -0.15625089 4278584064
-0.0034685305 0.062603384 -0.15625089 4278584064
-0.004226394 0.061845522 -0.15625089 4278649856
-0.0049842577 0.06108766 -0.15625089 4278649856
-0.005742121 0.060329795 -0.15625089 4278715136
-0.0064999899 0.059571926 -0.15625089 4278715136
-0.0072578536 0.058814064 -0.15625089 4278715137
-0.0074317702 0.057687718 -0.15708439 4278780930
-0.008190793 0.056928694 -0.15708439 4278649857
-0.0089498255 0.056169663 -0.15708439 4278649857
-0.009128415 0.055038653 -0.15791789 4278584064
-0.0098886183 0.054278452 -0.15791789 4278518272
-0.010648816 0.053518254 -0.15791789 4278584064
-0.011409018 0.052758053 -0.15791789 4278518272
-0.012744986 0.052374501 -0.15708439 4278584064
-0.013504019 0.051615469 -0.15708439 4278584064
-0.014263052 0.050856434 -0.15708439 4278584064
-0.015022075 0.050097413 -0.15708439 4278584064
-0.015781108 0.049338382 -0.15708439 4278649344
-0.017110074 0.048961841 -0.15625089 4278649344
-0.017867938 0.048203979 -0.15625089 4278518272
-0.018625801 0.047446117 -0.15625089 4278518272
-0.019383671 0.046688247 -0.15625089 4278387456
-0.020141535 0.045930382 -0.15625089 4278387456
-0.021463513 0.045560874 -0.15541734 4278387456
-0.022220213 0.044804174 -0.15541734 4278387456
-0.022976907 0.044047479 -0.15541734 4278453248
-0.024294199 0.043682616 -0.15458384 4278387456
-0.025049724 0.042927094 -0.15458384 4278387456
-0.025805254 0.042171564 -0.15458384 4278387456
-0.027117867 0.041811369 -0.15375035 4278387456
-0.10695953 0.082928479 -0.047894027 4278321920
-0.10810403 0.082736462 -0.047060478 4278321666
-0.10924614 0.082546756 -0.046226975 4278387459
-0.10984987 0.081943035 -0.046226975 4278518788
-0.11098849 0.08175683 -0.045393467 4278518788
-0.11159105 0.081154279 -0.045393467 4278453248
-0.11272616 0.080971576 -0.044559963 4278519041
-0.11385898 0.080791235 -0.043726403 4278649856
-0.11551965 0.081035405 -0.042059407 4278649856
-0.11611754 0.080437526 -0.042059407 4279631872
-0.11724331 0.080264166 -0.041225903 4285139717
-0.11836675 0.080093145 -0.040392399 4285929233
-0.11948788 0.079924479 -0.039558835 4287694081
-0.12060665 0.07975813 -0.038725331 4287825667
-0.12119987 0.079164915 -0.038725331 4288349699
-0.12231513 0.079002075 -0.037891828 4288349699
-0.12290718 0.078410029 -0.037891828 4288546049
-0.12349922 0.077817984 -0.037891828 4288611842
-0.12460982 0.077659808 -0.037058335 4288676864
-0.1252007 0.077068932 -0.037058335 4288742656
-0.12579158 0.076478057 -0.037058335 4288874240
-0.1258674 0.075449802 -0.037891828 4288874240
-0.12645943 0.074857756 -0.037891828 4288940032
-0.12705149 0.074265718 -0.037891828 4288874240
-0.12764353 0.073673673 -0.037891828 4289005056
-0.12823558 0.073081627 -0.037891828 4289136641
-0.12882762 0.072489582 -0.037891828 4289070848
-0.12941967 0.071897537 -0.037891828 4288939264
-0.13001171 0.071305491 -0.037891828 4289070080
-0.13060375 0.070713446 -0.037891828 4289070080
-0.1311958 0.070121408 -0.037891828 4289070080
-0.13178784 0.069529362 -0.037891828 4289070080
-0.13237989 0.068937317 -0.037891828 4289201152
-0.13297193 0.068345271 -0.037891828 4289266944
-0.13356398 0.067753226 -0.037891828 4289201152
-0.13415602 0.06716118 -0.037891828 4289201152
-0.13474806 0.066569135 -0.037891828 4289331968
-0.13534011 0.065977097 -0.037891828 4289331968
-0.13593215 0.065385051 -0.037891828 4289463553
-0.1365242 0.064793006 -0.037891828 4289397760
-0.13711624 0.06420096 -0.037891828 4289331968
-0.13770829 0.063608915 -0.037891828 4289266176
-0.13830033 0.063016869 -0.037891828 4289266176
-0.13889237 0.062424827 -0.037891828 4289331968
-0.13948442 0.061832782 -0.037891828 4289397760
-0.14007646 0.06124074 -0.037891828 4289397760
-0.14066851 0.060648695 -0.037891828 4289397760
-0.14126055 0.060056649 -0.037891828 4289397760
-0.1418526 0.059464607 -0.037891828 4289331968
-0.14244464 0.058872562 -0.037891828 4289266176
-0.14303668 0.058280516 -0.037891828 4289201152
-0.14362873 0.057688471 -0.037891828 4289266944
-0.14422077 0.057096429 -0.037891828 4289201664
-0.14481282 0.056504384 -0.037891828 4289070080
-0.14540486 0.055912338 -0.037891828 4289070080
-0.14599691 0.055320296 -0.037891828 4289070080
-0.14658895 0.054728251 -0.037891828 4288545536
-0.14718099 0.054136205 -0.037891828 4288282624
-0.14777304 0.05354416 -0.037891828 4288020480
-0.14836508 0.052952118 -0.037891828 4288217600
-0.14895713 0.052360073 -0.037891828 4288612353
-0.14954917 0.051768027 -0.037891828 4288743939
-0.15014122 0.051175985 -0.037891828 4288940288
-0.15073326 0.05058394 -0.037891828 4288808704
-0.1513253 0.049991895 -0.037891828 4289135872
-0.15191735 0.049399853 -0.037891828 4289070080
-0.15250939 0.048807807 -0.037891828 4289135872
-0.15310144 0.048215762 -0.037891828 4289070080
-0.15369348 0.047623716 -0.037891828 4289135872
-0.15382653 0.046538252 -0.038725331 4289135872
-0.15441975 0.045945041 -0.038725331 4289004288
-0.15501295 0.045351826 -0.038725331 4288872704
-0.15515068 0.04426169 -0.039558835 4289004288
-0.15574506 0.043667309 -0.039558835 4289004288
-0.15588625 0.042573642 -0.040392399 4288545280
-0.1564818 0.041978095 -0.040392399 4288413696
-0.15662652 0.040880952 -0.041225903 4286842624
-0.15677358 0.039781474 -0.042059407 4286251008
-0.15692298 0.038679652 -0.042892899 4284351232
-0.1570747 0.037575502 -0.043726403 4284153856
-0.1567826 0.035962723 -0.045393467 4283564544
-0.15694016 0.034852736 -0.046226975 4283498752
-0.15665624 0.033231776 -0.047894027 4283367936
-0.15681964 0.032115947 -0.048727531 4283302144
-0.15698539 0.030997785 -0.049561035 4282910464
-0.15671314 0.029365182 -0.051228046 4283042048
-0.1568847 0.028241146 -0.052061591 4281867014
-0.15662065 0.026600368 -0.053728603 4281932807
-0.15679806 0.025470529 -0.054562107 4281344011
-0.15654215 0.023821542 -0.056229159 4281344011
-0.15672542 0.022685865 -0.057062663 4281080839
-0.1564777 0.021028737 -0.058729675 4280096007
-0.15666677 0.019887188 -0.05956322 4279832835
-0.15642723 0.018221887 -0.061230231 4280356614
-0.15619238 0.016551916 -0.062897243 4280619786
-0.15596215 0.014877241 -0.064564295 4282648582
-0.15616409 0.013722876 -0.065397799 4282582789
-0.15636837 0.012566179 -0.066231303 4282583040
-0.15657496 0.011407117 -0.067064859 4282977797
-0.15635996 0.0097172931 -0.068731874 4283306753
-0.1565724 0.0085524227 -0.069565378 4283306753
-0.15678719 0.0073852106 -0.070398867 4283305984
-0.15658383 0.0056836801 -0.072065935 4283305984
-0.15680446 0.0045106332 -0.072899438 4283567872
-0.15702742 0.0033352526 -0.073732942 4283567872
-0.12619196 -0.049643256 -0.14708221 4288569673
-0.12890135 -0.04949538 -0.14458171 4289227851
-0.13004816 -0.049689729 -0.14374813 4289621578
-0.13159673 -0.049333468 -0.14208113 4289687371
-0.13233474 -0.050071474 -0.14208113 4289688141
-0.13347453 -0.050258845 -0.14124763 4289753934
-0.13501263 -0.049892042 -0.13958058 4289490762
-0.13574713 -0.05062655 -0.13958058 4289359176
-0.13687992 -0.05080691 -0.13874707 4289489992
-0.13801037 -0.050984941 -0.13791357 4289489992
-0.13953444 -0.050604124 -0.13624652 4289226822
-0.14026429 -0.05133396 -0.13624652 4288963650
-0.14138773 -0.051504984 -0.13541301 4288766021
-0.1421164 -0.052233651 -0.13541301 4287713333
-0.14323632 -0.05240117 -0.13457951 4286859057
-0.14396384 -0.053128678 -0.13457951 4285937955
-0.14508027 -0.053292695 -0.133746 4284952605
-0.14619437 -0.053454373 -0.13291249 4284623640
-0.14691953 -0.054179542 -0.13291249 4284493337
-0.1476447 -0.054904711 -0.13291249 4284559130
-0.14798561 -0.056198031 -0.133746 4284493335
-0.14871195 -0.056924369 -0.133746 4284559128
-0.14943828 -0.0576507 -0.133746 4284493335
-0.14978385 -0.058948692 -0.13457951 4284427542
-0.15051135 -0.059676196 -0.13457951 4284296726
-0.15086043 -0.060977694 -0.13541301 4284428312
-0.15158911 -0.061706368 -0.13541301 4284559898
-0.15194169 -0.063011363 -0.13624652 4284494105
-0.15267152 -0.0637412 -0.13624652 4284559898
-0.15302758 -0.065049745 -0.13708006 4284625691
-0.15338601 -0.066360585 -0.13791357 4284625693
-0.15411817 -0.067092754 -0.13791357 4284757279
-0.1544801 -0.068407096 -0.13874707 4284823072
-0.15447526 -0.07030715 -0.14041412 4284954658
-0.15373927 -0.073380843 -0.14374813 4284888863
-0.15264586 -0.077049628 -0.14791577 4284954656
-0.15083297 -0.081903726 -0.15375035 4284692511
-0.14867198 -0.087362222 -0.16041847 4284231960
-0.14543997 -0.094606929 -0.16958711 4284231960
-0.14331986 -0.10010629 -0.17625523 4283048467
-0.14266209 -0.10325826 -0.1795893 4282390537
-0.14273319 -0.10523418 -0.18125631 4281538060
-0.14316751 -0.10662092 -0.18208982 4281406474
-0.14360413 -0.10801004 -0.18292335 4281079562
-0.14404313 -0.10940145 -0.18375686 4281211148
-0.14483953 -0.11019786 -0.18375686 4281211148
-0.14563593 -0.11099426 -0.18375686 4281211148
-0.14643233 -0.11179065 -0.18375686 4281341964
-0.14722872 -0.11258705 -0.18375686 4281341964
-0.14802513 -0.11338344 -0.18375686 4281473550
-0.14882152 -0.11417985 -0.18375686 4281407757
-0.14961793 -0.11497625 -0.18375686 4281473037
-0.15041432 -0.11577264 -0.18375686 4281407244
-0.15121073 -0.11656905 -0.18375686 4281473037
-0.15200712 -0.11736545 -0.18375686 4281473037
-0.15280353 -0.11816184 -0.18375686 4281407244
-0.15359992 -0.11895824 -0.18375686 4281407244
-0.15439631 -0.11975463 -0.18375686 4281407755
-0.15519272 -0.12055104 -0.18375686 4281407755
-0.15598911 -0.12134744 -0.18375686 4281341962
-0.15678552 -0.12214383 -0.18375686 4281341962
-0.15791829 -0.1223242 -0.18292335 4281538056
-0.15871353 -0.12311944 -0.18292335 4281603849
-0.15950876 -0.12391467 -0.18292335 4281669129
-0.1606369 -0.12409031 -0.18208982 4281603336
-0.16143095 -0.12488437 -0.18208982 4281471752
-0.16255558 -0.12505656 -0.18125631 4281471752
-0.16334847 -0.12584947 -0.18125631 4281538058
-0.16414137 -0.12664236 -0.18125631 4281669644
-0.16526131 -0.1268099 -0.18042281 4281538058
-0.16605304 -0.12760162 -0.18042281 4281538058
-0.16684477 -0.12839335 -0.18042281 4281209863
-0.16763648 -0.12918507 -0.18042281 4281209863
-0.16842821 -0.12997679 -0.18042281 4281143818
-0.16921994 -0.13076852 -0.18042281 4281078025
-0.17001167 -0.13156025 -0.18042281 4280618759
-0.1708034 -0.13235198 -0.18042281 4280421380
-0.17127743 -0.13377842 -0.18125631 4280026884
-0.17207032 -0.13457131 -0.18125631 4280290056
-0.17286322 -0.13536422 -0.18125631 4280881413
-0.17334192 -0.13679533 -0.18208982 4281144585
-0.17413598 -0.1375894 -0.18208982 4280947976
-0.17461815 -0.13902406 -0.18292335 4280947976
-0.1751027 -0.14046101 -0.18375686 4281079308
-0.17589909 -0.14125741 -0.18375686 4281210894
-0.1766955 -0.14205381 -0.18375686 4281079562
-0.17749189 -0.14285022 -0.18375686 4281211148
-0.17828828 -0.14364661 -0.18375686 4281276941
-0.17908469 -0.14444301 -0.18375686 4281276941
-0.17957738 -0.14588813 -0.18459035 4281341964
-0.18037497 -0.1466857 -0.18459035 4281341964
-0.18117253 -0.14748327 -0.18459035 4281407755
-0.18197009 -0.14828084 -0.18459035 4281407755
-0.18276764 -0.1490784 -0.18459035 4281473035
-0.18356523 -0.14987597 -0.18459035 4281473035
-0.1843628 -0.15067354 -0.18459035 4281538828
-0.18516035 -0.15147111 -0.18459035 4281538828
-0.18595792 -0.15226866 -0.18459035 4281538828
-0.18675549 -0.15306623 -0.18459035 4281538828
-0.18755305 -0.1538638 -0.18459035 4281669644
-0.18835063 -0.15466137 -0.18459035 4281735437
-0.1891482 -0.15545894 -0.18459035 4281734922
-0.19023427 -0.15559259 -0.18375686 4281734922
-0.19103067 -0.156389 -0.18375686 4281866508
-0.19182707 -0.15718541 -0.18375686 4281800715
-0.19262347 -0.1579818 -0.18375686 4281800715
-0.19341987 -0.15877819 -0.18375686 4281734922
-0.19421628 -0.1595746 -0.18375686 4281800715
-0.19501267 -0.16037099 -0.18375686 4281735435
-0.19580905 -0.16116738 -0.18375686 4281801228
-0.19660546 -0.16196378 -0.18375686 4281538828
-0.19740187 -0.16276018 -0.18375686 4281538828
-0.19819826 -0.16355658 -0.18375686 4281604621
-0.19871899 -0.16502973 -0.18459035 4281604621
-0.19951655 -0.1658273 -0.18459035 4281801230
-0.20031413 -0.16662487 -0.18459035 4281735437
-0.2011117 -0.16742244 -0.18459035 4281603851
-0.20163827 -0.16890143 -0.18542387 4281735437
-0.202437 -0.16970016 -0.18542387 4281800717
-0.20323573 -0.17049889 -0.18542387 4281866510
-0.20403448 -0.17129764 -0.18542387 4281801228
-0.20483321 -0.17209637 -0.18542387 4281669642
-0.20536678 -0.1735824 -0.18625742 4281669642
-0.20616668 -0.17438231 -0.18625742 4281735435
-0.20696658 -0.17518221 -0.18625742 4281800715
-0.20776647 -0.1759821 -0.18625742 4281866508
-0.20856638 -0.17678201 -0.18625742 4281866762
-0.20936628 -0.17758192 -0.18625742 4281866762
-0.21016619 -0.17838182 -0.18625742 4281866760
-0.21096608 -0.17918171 -0.18625742 4281866760
-0.21176599 -0.17998162 -0.18625742 4281735174
-0.2125659 -0.18078153 -0.18625742 4281735174
-0.21336579 -0.18158144 -0.18625742 4281931785
-0.21416569 -0.18238133 -0.18625742 4281931785
-0.2149656 -0.18318123 -0.18625742 4281865738
-0.21576551 -0.18398114 -0.18625742 4281931531
-0.21656542 -0.18478104 -0.18625742 4281866508
-0.21736531 -0.18558094 -0.18625742 4281866508
-0.21816522 -0.18638085 -0.18625742 4281734922
-0.21896511 -0.18718074 -0.18625742 4281800715
-0.21976502 -0.18798065 -0.18625742 4281800715
-0.22056492 -0.18878056 -0.18625742 4281734922
-0.22160663 -0.18886979 -0.18542387 4281801228
-0.22240536 -0.18966852 -0.18542387 4281801228
-0.22320409 -0.19046725 -0.18542387 4281866762
-0.22400282 -0.19126599 -0.18542387 4281800969
-0.22503869 -0.19134943 -0.18459035 4281800967
-0.22583626 -0.192147 -0.18459035 4281866760
-0.22663383 -0.19294457 -0.18459035 4281866760
-0.22743139 -0.19374214 -0.18459035 4281800967
-0.22822897 -0.19453971 -0.18459035 4281801480
-0.22925782 -0.19461614 -0.18375686 4281867273
-0.23005423 -0.19541255 -0.18375686 4281801734
-0.23085062 -0.19620894 -0.18375686 4281867527
-0.23164701 -0.19700535 -0.18375686 4282064906
-0.23244342 -0.19780175 -0.18375686 4281999113
-0.23346528 -0.19787118 -0.18292335 4281867527
-0.2342605 -0.19866641 -0.18292335 4281801734
-0.23527886 -0.19873227 -0.18208982 4281999113
-0.23629487 -0.19879587 -0.18125631 4282130699
-0.23730855 -0.19885713 -0.18042281 4282130186
-0.23831989 -0.19891605 -0.1795893 4282393358
-0.23932891 -0.19897264 -0.17875579 4282655756
-0.24055286 -0.1982917 -0.17708874 4282392584
-0.24177213 -0.19760615 -0.17542171 4282457863
-0.24298675 -0.19691586 -0.17375468 4282786828
-0.24398293 -0.19695961 -0.17292118 4282852108
-0.24497674 -0.19700101 -0.17208767 4283510038
-0.24617968 -0.19629908 -0.1704206 4286994221
-0.24716766 -0.19633463 -0.16958711 4287783737
-0.24794422 -0.19711119 -0.16958711 4287915577
-0.2489287 -0.19714324 -0.16875359 4288047163
-0.24991086 -0.19717298 -0.1679201 4288178495
-0.25068507 -0.19794719 -0.1679201 4288244288
-0.25145927 -0.19872139 -0.1679201 4288308034
-0.25223348 -0.1994956 -0.1679201 4286860588
-0.25300768 -0.20026982 -0.1679201 4286070311
-0.25378191 -0.20104402 -0.1679201 4286004518
-0.25455612 -0.20181824 -0.1679201 4285677346
-0.25533032 -0.20259246 -0.1679201 4285743139
-0.25610456 -0.20336668 -0.1679201 4286007076
-0.25687873 -0.20414087 -0.1679201 4286467627
-0.25765297 -0.20491509 -0.1679201 4286732848
-0.25842717 -0.20568931 -0.1679201 4287192118
-0.25900865 -0.20722319 -0.16875359 4287718462
-0.25978401 -0.20799857 -0.16875359 4288178247
-0.26055941 -0.20877394 -0.16875359 4288244040
-0.26114553 -0.21031249 -0.16958711 4288178497
-0.26173398 -0.21185337 -0.1704206 4288178497
-0.26232478 -0.21339664 -0.17125417 4287981118
-0.26291791 -0.21494219 -0.17208767 4288174902
-0.26351339 -0.21649007 -0.17292118 4287253800
-0.26411119 -0.21804029 -0.17375468 4285347111
-0.26452905 -0.22036308 -0.17542171 4284689181
-0.2651327 -0.22191913 -0.17625523 4284493603
-0.26573867 -0.22347753 -0.17708874 4284164638
-0.26634699 -0.22503826 -0.17792223 4282258449
-0.26695764 -0.22660138 -0.17875579 4281797898
-0.26774701 -0.22739077 -0.17875579 4281078025
-0.26836121 -0.22895736 -0.1795893 4280946439
-0.26915175 -0.22974791 -0.1795893 4280749575
-0.2697694 -0.231318 -0.18042281 4280881161
-0.27056113 -0.23210973 -0.18042281 4280816138
-0.27135286 -0.23290145 -0.18042281 4280881931
-0.27214459 -0.23369318 -0.18042281 4280816904
-0.27293631 -0.23448491 -0.18042281 4280751111
-0.27372804 -0.23527664 -0.18042281 4280816904
-0.27451977 -0.23606834 -0.18042281 4280816904
-0.2753115 -0.23686007 -0.18042281 4281013769
-0.27610323 -0.2376518 -0.18042281 4281079562
-0.27689496 -0.23844352 -0.18042281 4281079560
-0.27768669 -0.23923525 -0.18042281 4281211146
-0.27847841 -0.24002698 -0.18042281 4281276939
-0.27927014 -0.24081871 -0.18042281 4281671697
-0.28006187 -0.24161044 -0.18042281 4282327565
-0.2808536 -0.24240217 -0.18042281 4282393358
-0.28148994 -0.24399093 -0.18125631 4282852623
-0.28228283 -0.24478382 -0.18125631 4282852623
-0.28307572 -0.24557672 -0.18125631 4282787342
-0.28386861 -0.24636962 -0.18125631 4282655756
-0.28466153 -0.24716252 -0.18125631 4282655756
-0.28545442 -0.24795541 -0.18125631 4282655756
-0.28624731 -0.24874832 -0.18125631 4282787596
-0.2870402 -0.24954121 -0.18125631 4282656010
-0.28783309 -0.25033408 -0.18125631 4282656010
-0.28862599 -0.25112697 -0.18125631 4282721549
-0.28941891 -0.2519199 -0.18125631 4282721549
-0.2902118 -0.25271279 -0.18125631 4282983696
-0.29100469 -0.25350568 -0.18125631 4282917903
-0.29179758 -0.25429857 -0.18125631 4282982926
-0.29259047 -0.25509146 -0.18125631 4283048719
-0.29338339 -0.25588438 -0.18125631 4282982926
-0.29431298 -0.25586155 -0.18042281 4282982926
-0.29510471 -0.25665328 -0.18042281 4283048208
-0.29589644 -0.25744501 -0.18042281 4283179794
-0.29668817 -0.25823674 -0.18042281 4282982928
-0.2974799 -0.25902846 -0.18042281 4282851342
-0.29840249 -0.25899863 -0.1795893 4282851342
-0.29919305 -0.2597892 -0.1795893 4283114514
-0.29998359 -0.26057976 -0.1795893 4283180042
0.14772198 0.17745249 -0.18974191 4281603590
0.14691857 0.17664908 -0.18974191 4281603590
0.14611517 0.17584568 -0.18974191 4281735176
0.14531174 0.17504226 -0.18974191 4281669383
0.14450833 0.17423885 -0.18974191 4281735176
0.14370494 0.17343545 -0.18974191 4281800199
0.14213133 0.17281312 -0.18890698 4281800199
0.14132909 0.17201087 -0.18890698 4281865992
0.14052685 0.17120862 -0.18890698 4281931785
0.1397246 0.17040639 -0.18890698 4281800969
0.13892238 0.16960415 -0.18890698 4281669383
0.13735579 0.16898881 -0.18807203 4281669383
0.1365547 0.16818772 -0.18807203 4281603590
0.13575365 0.16738665 -0.18807203 4281603338
0.13495257 0.16658559 -0.18807203 4281669131
0.13339183 0.16597611 -0.1872371 4281669129
0.13259193 0.1651762 -0.1872371 4281669129
0.13179202 0.1643763 -0.1872371 4281603336
0.13099211 0.16357639 -0.1872371 4281734922
0.13019222 0.16277649 -0.1872371 4281603336
0.12939231 0.16197658 -0.1872371 4281799945
0.1285924 0.16117668 -0.1872371 4281799945
0.12779249 0.16037677 -0.1872371 4281799945
0.12774296 0.15937597 -0.18807203 4281799945
0.12694187 0.15857488 -0.18807203 4281800199
0.1261408 0.15777382 -0.18807203 4281800199
0.12533975 0.15697275 -0.18807203 4281800199
0.12453866 0.15617168 -0.18807203 4281931785
0.1237376 0.15537061 -0.18807203 4281997578
0.12219319 0.15477745 -0.1872371 4281931785
0.12139328 0.15397756 -0.1872371 4281865992
0.12059338 0.15317765 -0.1872371 4281800199
0.11979349 0.15237777 -0.1872371 4281865990
0.11825487 0.15179045 -0.18640213 4281997576
0.033205591 0.16757514 -0.097897992 4288899908
0.032530632 0.16690017 -0.097897992 4285149709
0.031131033 0.16645183 -0.09706305 4286070811
0.030457241 0.16577804 -0.09706305 4288039468
0.02978345 0.16510424 -0.09706305 4284815616
0.029109681 0.16443047 -0.09706305 4286188544
0.027715908 0.16398795 -0.096228115 4286254336
0.02632447 0.16354777 -0.095393188 4286515456
0.025653018 0.16287632 -0.095393188 4286515456
0.024265045 0.16243964 -0.094558194 4286777600
0.022879444 0.16200531 -0.093723275 4286843392
0.022210332 0.1613362 -0.093723275 4287105796
0.020828245 0.16090536 -0.092888333 4287303175
0.019448485 0.16047685 -0.092053398 4287499784
0.018781701 0.15981007 -0.092053398 4287894542
0.017405452 0.15938506 -0.091218464 4288358173
0.016739838 0.15871945 -0.091218464 4288624423
0.015367044 0.15829797 -0.090383485 4288558630
0.013996632 0.1578788 -0.089548543 4288495394
0.012628542 0.15746197 -0.088713624 4288232222
0.011966436 0.15679987 -0.088713624 4288100636
0.010601861 0.15638654 -0.087878682 4288100636
0.0099409251 0.1557256 -0.087878682 4287373066
0.0085798167 0.1553158 -0.087043703 4287373066
0.0079200389 0.15465602 -0.087043703 4288095249
0.0065624709 0.15424971 -0.086208768 4288095249
0.0059038633 0.1535911 -0.086208768 4288163095
0.0045497934 0.15318827 -0.085373826 4287834130
0.0038923551 0.15253083 -0.085373826 4287242259
0.0032349171 0.15187339 -0.085373826 4288492326
0.0018855252 0.15147527 -0.084538892 4287373841
0.0012292566 0.15081899 -0.084538892 4288623908
-0.00011664222 0.15042435 -0.083703965 4287374606
-0.00077175174 0.14976925 -0.083703965 4287835157
-0.0014268508 0.14911415 -0.083703965 4285991168
-0.0020819497 0.14845905 -0.083703965 4285859584
-0.0034220426 0.14807025 -0.082868971 4285399808
-0.0040759826 0.14741631 -0.082868971 4285334016
-0.0047299014 0.14676239 -0.082868971 4283501056
-0.0053838412 0.14610845 -0.082868971 4283172096
-0.0060377708 0.14545453 -0.082868971 4282190336
-0.0066917106 0.14480059 -0.082868971 4282453504
-0.0073456508 0.14414664 -0.082868971 4282848260
-0.0079995804 0.14349271 -0.082868971 4283045639
-0.0079778722 0.14256312 -0.083703965 4282652164
-0.008632971 0.14190802 -0.083703965 4282388992
-0.009288081 0.14125291 -0.083703965 4281994752
-0.0092710722 0.14031866 -0.084538892 4281797376
-0.0099273408 0.1396624 -0.084538892 4281534720
-0.0099138459 0.13872464 -0.085373826 4281666304
-0.0099026803 0.13778456 -0.086208768 4281666816
-0.010561287 0.13712595 -0.086208768 4281666816
-0.0098873125 0.13589737 -0.087878682 4281600771
-0.01054826 0.13523641 -0.087878682 4281600771
-0.010545271 0.13428816 -0.088713624 4281469953
-0.0098818261 0.1330491 -0.090383485 4281535746
-0.0098846322 0.13209498 -0.091218464 4281141504
-0.010550248 0.13142936 -0.091218464 4280944128
-0.010556604 0.13047175 -0.092053398 4280616960
-0.010565288 0.12951182 -0.092888333 4280485376
-0.010576312 0.12854955 -0.093723275 4280288512
-0.011245426 0.12788044 -0.093723275 4280354304
-0.011259953 0.12691465 -0.094558194 4280681984
-0.011276779 0.12594652 -0.095393188 4280681984
-0.011295963 0.12497608 -0.096228115 4280682752
-0.011317503 0.12400329 -0.09706305 4280682752
-0.011341372 0.12302817 -0.097897992 4280616960
-0.011367527 0.12205071 -0.098732971 4280616960
-0.01074848 0.12076726 -0.10040285 4280486144
-0.010134106 0.11947913 -0.10207271 4280354560
-0.010169607 0.11849231 -0.10290769 4280550400
-0.0095634041 0.11719602 -0.10457756 4280550400
-0.0089618741 0.11589504 -0.10624742 4280550400
-0.0083649755 0.11458938 -0.10791734 4280419328
-0.0071321782 0.11296836 -0.11042219 4280485120
-0.0065458156 0.11165223 -0.11209207 4280288512
-0.0059641367 0.1103314 -0.11376193 4280288512
-0.0053870892 0.10900589 -0.11543185 4280091648
-0.0041788109 0.10736036 -0.1179367 4280091648
-0.003612305 0.10602435 -0.11960656 4280026624
-0.0024168713 0.10436598 -0.12211142 4280026624
-0.0005960702 0.10238178 -0.12545115 4279960832
0.0012154108 0.1003882 -0.12879094 4280026624
0.003017572 0.098385297 -0.13213073 4279829760
0.0054392894 0.096050695 -0.13630544 4279763968
0.0078493208 0.09370441 -0.14048016 4279370240
0.010874278 0.091021746 -0.14548986 4279370240
0.013885184 0.088325091 -0.15049952 4279304448
0.016882077 0.085614413 -0.15550917 4279108352
0.018618846 0.083546117 -0.15884894 4279305728
0.01910246 0.082127184 -0.16051888 4278912000
0.01896067 0.081034131 -0.1613538 4278780416
0.018196959 0.080270424 -0.1613538 4278583552
0.016814865 0.079839587 -0.16051888 4278583552
0.016052324 0.07907705 -0.16051888 4278518272
0.014673703 0.078649737 -0.1596839 4278584064
0.013912331 0.077888362 -0.1596839 4278584064
0.012537246 0.077464521 -0.15884894 4278649856
0.011164489 0.077043019 -0.15801403 4278911744
0.0097940816 0.07662385 -0.15717907 4278911744
0.0084259715 0.076207057 -0.1563441 4278911744
0.0076692728 0.075450353 -0.1563441 4278977537
0.0063046925 0.075037032 -0.15550917 4278977537
0.0055491626 0.074281506 -0.15550917 4278911744
0.0047936328 0.073525973 -0.15550917 4278911746
0.0040381034 0.072770447 -0.15550917 4278911746
0.0032825735 0.072014913 -0.15550917 4278977024
0.0025270439 0.071259387 -0.15550917 4278977024
0.0017715248 0.070503868 -0.15550917 4278845952
0.001015995 0.069748335 -0.15550917 4278845952
0.0002604654 0.068992808 -0.15550917 4278845952
0.00010231179 0.067883395 -0.1563441 4278845952
-0.00065438217 0.067126699 -0.1563441 4278715136
-0.0014110814 0.066370003 -0.1563441 4278649344
-0.0021677755 0.065613307 -0.1563441 4278584064
-0.0029244747 0.064856604 -0.1563441 4278584064
-0.0036811633 0.064099915 -0.1563441 4278584064
-0.0044378573 0.063343227 -0.1563441 4278649856
-0.0051945564 0.062586524 -0.1563441 4278649856
-0.0059512504 0.061829831 -0.1563441 4278649856
-0.0061210478 0.060708724 -0.15717907 4278715136
-0.0068789166 0.059950855 -0.15717907 4278715136
-0.0076367799 0.059192989 -0.15717907 4278649857
-0.0083946437 0.058435127 -0.15717907 4278715650
-0.0085703144 0.057308216 -0.15801403 4278715648
-0.0093293479 0.056549184 -0.15801403 4278584064
-0.01008838 0.055790152 -0.15801403 4278584064
-0.010847414 0.055031117 -0.15801403 4278584064
-0.011606442 0.054272089 -0.15801403 4278584064
-0.012365475 0.053513058 -0.15801403 4278584064
-0.013124508 0.052754022 -0.15801403 4278584064
-0.013883541 0.051994991 -0.15801403 4278584064
-0.014642574 0.051235959 -0.15801403 4278584064
-0.015401597 0.050476935 -0.15801403 4278584064
-0.016731137 0.050098632 -0.15717907 4278584064
-0.017489001 0.04934077 -0.15717907 4278518272
-0.018246865 0.048582904 -0.15717907 4278387456
-0.019004729 0.047825042 -0.15717907 4278387456
-0.019762596 0.047067173 -0.15717907 4278387456
-0.021085173 0.04669591 -0.1563441 4278387456
-0.021841861 0.045939218 -0.1563441 4278387202
-0.022598561 0.045182522 -0.1563441 4278387202
-0.023916431 0.044815909 -0.15550917 4278387456
-0.024671961 0.044060379 -0.15550917 4278387456
-0.025427485 0.043304853 -0.15550917 4278453248
-0.026740683 0.042942904 -0.15467423 4278518272
-0.10726256 0.083231509 -0.048636295 4278321920
-0.10840646 0.083038904 -0.047801305 4278387712
-0.10954801 0.082848616 -0.046966378 4278387712
-0.11068721 0.08266066 -0.046131443 4278649604
-0.11128977 0.082058109 -0.046131443 4278649604
-0.11295865 0.082291789 -0.044461526 4278584064
-0.11355887 0.081691571 -0.044461526 4278649856
-0.11468989 0.081511788 -0.043626588 4279174144
-0.11581859 0.081334345 -0.04279165 4279174144
-0.11747343 0.08158201 -0.041121788 4283700239
-0.11859632 0.08141043 -0.040286809 4287040771
-0.11919069 0.080816053 -0.040286809 4287040771
-0.12031005 0.080647953 -0.039451871 4288153601
-0.12142707 0.080482185 -0.038616933 4288285187
-0.12201911 0.079890139 -0.038616933 4288349952
-0.12313263 0.079727881 -0.03778201 4288349952
-0.12372351 0.079137005 -0.03778201 4288611840
-0.12431438 0.078546129 -0.03778201 4288677633
-0.12490526 0.077955253 -0.03778201 4288808704
-0.12549613 0.07736437 -0.03778201 4288808704
-0.12608701 0.076773494 -0.03778201 4288940289
-0.12667789 0.076182619 -0.03778201 4288874496
-0.12726876 0.075591743 -0.03778201 4289005824
